# .PCD v0.7 - Point Cloud Data file format
VERSION 0.7
FIELDS x y z
SIZE 4 4 4
TYPE F F F
COUNT 1 1 1
WIDTH 1514
HEIGHT 1
VIEWPOINT 0 0 0 1 0 0 0
POINTS 1514
DATA ascii
1.3561254 0.20545547 3.678143
0.87370199 0.21614762 4.0052118
0.84304076 0.21994375 4.2864366
1.3510349 -0.18343438 4.9839082
1.5630459 -0.23264059 4.9190331
1.7085907 -0.25141975 5.1135702
0.41413742 -0.18634552 6.536787
0.82353932 0.241051 6.0919094
1.3136612 0.21659206 4.0027418
1.2640179 0.21474719 3.9989157
1.2779939 0.21807063 4.0156069
1.329252 0.22479911 4.037344
1.3069842 0.22540002 4.0563817
1.2807474 -0.13233086 4.0679955
1.2802873 -0.13214919 4.0706172
1.3147098 0.22691177 4.0679216
1.2658879 -0.097852074 4.2179475
1.1780375 -0.094066821 4.0276909
2.1311684 -0.29740331 3.8531241
2.2659137 -0.43474701 3.8630004
2.0713434 -0.29639962 3.8435218
2.2329774 -0.30079287 3.8887713
1.3351125 -0.23515287 4.5573864
2.2544599 -0.37492356 3.9793098
1.1244556 0.20590034 3.7537239
0.85697705 0.20294124 3.9649124
1.3358371 0.21070105 3.6417034
0.90359771 0.20181546 3.9588075
0.90526444 0.20269014 3.9610553
1.1784635 -0.15463248 4.089571
1.4216559 -0.25541317 3.9047391
1.4381363 -0.25803483 3.913624
1.2913162 -0.13265698 4.0898013
1.2778033 -0.073995873 4.174962
1.1995951 0.20475198 3.544137
1.2333478 -0.33688527 3.807915
0.86321175 0.21373269 4.0205722
1.28579 -0.3088268 3.8518829
1.2897389 -0.30724499 3.8497195
1.0243434 -0.098528884 4.9330683
1.1593791 -0.30753043 5.6454067
0.064185455 -0.090279341 5.0525761
0.069706038 -0.098280378 4.977273
0.25224072 -0.25438589 5.3124356
0.2733539 -0.24948902 4.9659801
0.27652323 -0.25120643 4.9576006
0.29645482 -0.24508587 5.0352211
1.4515641 -0.23075895 4.068841
1.4731784 0.16905843 3.8383749
1.4971908 0.13206145 3.9621377
1.27043 -0.096096992 4.2288675
1.5117893 -0.010386189 3.9775512
1.6078465 -0.0032386859 4.0839224
1.6804416 0.00078945904 4.1703224
1.6051172 -0.00044894512 4.0835509
1.5938832 0.054107048 4.1047559
1.4989253 -0.31284803 4.0565934
1.3522414 0.20912229 4.0329165
2.0943005 0.20603655 3.419956
2.1528566 0.21412057 3.4509902
2.1406176 0.21341738 3.4447613
2.1028984 0.22173259 3.604826
1.4398305 -0.54060495 4.4165916
1.435657 -0.54079419 4.4130344
1.4248053 -0.57526261 4.3879666
1.7458562 0.20984195 3.498837
1.7711922 0.21121494 3.4839578
1.8525929 0.23220497 3.5509727
1.8277138 0.22240081 3.5148318
1.7766794 0.20900981 3.4910221
1.5237867 -0.40813884 3.7865427
1.8773537 0.22759491 3.5841777
1.2747387 -0.097241096 4.1824899
1.6460525 0.20765753 3.9655068
1.3257289 0.17827094 4.1812682
2.2464807 -0.42993823 3.8576527
1.4034941 -0.50674146 4.5702152
2.2362008 -0.34229189 3.915704
1.4029502 -0.50609893 4.5637403
2.2626462 -0.31847042 3.9334688
1.4084352 0.22063172 3.5126848
1.0817963 0.21413876 3.6861939
0.83625776 0.21942221 3.8029506
1.4671668 -0.22398192 4.8242235
1.2745925 -0.17315118 4.8275056
1.3285819 -0.18322487 4.9456306
1.3776381 -0.19165762 5.0546908
0.34981465 -0.054727718 6.1838894
1.5684599 -0.21391717 4.9451809
1.0613285 0.23141937 5.3273997
0.54770851 0.26212171 6.376462
1.4048909 0.0014139509 4.2211337
1.1383767 0.010535389 4.327631
1.0868305 -0.12654151 4.6796951
1.0987387 -0.21040131 4.3836241
1.516703 -0.015000326 4.0640001
1.473946 -0.018265208 4.0161133
0.29213384 -0.26233423 4.9162278
0.24544726 -0.23858573 5.5098767
1.2490991 -0.2426752 5.784246
0.30053359 -0.24694337 5.0452237
0.29543418 -0.27112207 4.889451
1.1494519 -0.17416114 4.9422755
0.12312472 -0.5337981 6.9016366
0.30321181 -0.29644182 4.9922638
1.1731651 -0.21356528 4.9791403
1.1417136 -0.20206985 4.8784661
2.1841333 0.0051452951 4.3635402
2.2286336 0.011251829 4.4015498
2.2065747 0.0094735688 4.3881574
2.0039375 0.0037332149 4.2055235
2.1112621 0.010045612 4.3078246
2.1906395 0.012027922 4.3570318
2.0634768 0.076474495 4.1835074
0.92536998 0.21322149 4.8603892
2.2288363 0.079100877 4.3015971
2.2691762 0.088891827 4.3294158
3.5681269 -1.1915249 6.5562806
2.2615516 0.034614012 4.3676
1.8025576 -0.011639845 4.0961752
2.2349465 0.033125337 4.3473263
1.8713373 -0.56562626 4.6077991
2.2530572 0.033958383 4.3564115
1.9360358 -0.0090818768 4.2129951
0.86228758 0.21101691 3.8629322
1.21061 0.22007376 3.572439
1.5197728 0.14043565 3.9887247
1.7006706 0.21164685 3.8273854
1.2000453 -0.26172784 4.265871
2.0974395 -0.35580593 3.9906559
2.1193326 -0.3669925 4.0131564
2.1712468 -0.14184284 3.9686303
2.4848921 -0.44424707 4.2703013
2.2350368 -0.088203475 3.9349825
2.5651371 -0.050703697 4.1151505
2.1733263 -0.21579464 3.8361919
1.254555 -0.18819669 4.8771958
2.4434209 -0.15267408 4.0063853
1.2445225 -0.16952573 4.6767945
0.84072399 0.21615931 4.1965427
1.5129097 0.20341927 3.6126087
1.3811458 -0.39571366 3.7930357
1.404223 -0.24953744 3.8859167
1.3349644 -0.23952608 4.0060191
0.85711449 0.20552453 3.8429549
1.3470869 0.20294562 3.6773899
1.7464705 0.20834093 3.5095363
1.6448262 -0.034791559 4.0186062
1.6328276 -0.0057929815 4.0292373
1.6957427 0.031087434 4.1052461
1.7531556 0.028371582 4.1737471
1.7523578 0.022935873 4.1761684
2.4655612 -0.42155895 4.1463866
2.1486959 -0.34511256 3.9389279
2.1652291 -0.35451546 3.9534926
2.1441061 -0.35043266 3.941184
2.1593173 -0.36481771 3.9651234
2.1371276 -0.38767597 3.970196
2.5735142 -0.2616162 4.1091995
2.4273484 -0.24515665 4.029089
2.6887941 -0.48602906 4.318716
2.3962171 -0.45922166 4.1829758
2.3746493 -0.42942744 4.1690478
1.3976557 -0.15112241 3.9804244
1.6444837 0.21712194 3.7674713
1.5817156 0.20478944 3.7307568
1.8028845 0.21178952 3.547986
1.6563848 0.21522629 3.758621
1.240135 -0.00066157733 4.1837525
1.2549114 0.20378885 3.5582891
1.3745549 0.19836022 3.4905934
0.85319805 0.20281626 3.9589701
1.4609486 0.21671021 3.543437
1.7114503 0.21280928 3.8430939
1.7138965 0.21453522 3.839417
1.7030588 0.21279301 3.8278179
1.7502484 0.22089876 3.8659172
1.7657713 0.21735656 3.8411469
1.7607226 0.21660194 3.823364
1.5246094 0.14684276 3.9979224
1.7892194 0.21218655 3.8523524
1.2259532 0.0074272747 4.3055515
1.3630509 -0.096217714 4.3171496
1.40487 0.21718511 3.5100343
1.0644621 0.23035638 3.714489
1.1506655 0.2204657 3.7989078
0.84355199 0.21280019 3.9174795
1.0704414 0.1880573 4.8707428
1.5017215 -0.22625498 4.8185778
1.3098223 0.0011563563 5.7404022
1.1242546 -0.21569878 4.9645271
1.3382866 -0.20843893 4.6401458
1.4797877 -0.22674704 4.862144
-0.2719779 0.28616568 -1.2218859
-0.12369937 0.28319842 -1.3120024
-0.48433927 -0.39541608 -1.3943521
-0.59484804 0.29091159 -1.4424791
0.25255883 -0.10507153 -1.6197469
0.2966986 -0.21842629 -1.9956728
-0.74596786 -0.35746491 -1.4761575
0.30450803 -0.30156314 -1.7015694
-0.2626597 0.29032022 -0.92227364
-0.48256531 0.30113465 -0.92207557
-0.45828366 0.30267209 -0.94729114
0.25110146 0.27439258 -0.94767439
-0.33065382 0.29086357 -1.4288138
-0.22797404 0.28753239 -1.3110762
0.05103945 0.29222018 -1.5243397
-0.65040654 -0.1383954 -1.3921996
0.25571084 0.25869057 -0.97898352
-0.41382551 0.30011261 -0.93324542
-0.27677426 0.17638171 -1.5320057
-0.20596343 0.22938079 -1.5423601
-0.36625221 0.048324883 -1.8221366
-0.11809238 0.20673718 -1.7525403
-0.12457743 0.22216713 -1.8109503
-0.20379801 0.13272713 -1.8741544
-0.20933527 0.13764501 -1.8920509
-0.25081894 0.22222218 -1.2650347
0.21851812 -0.081958152 -1.4917567
-0.6744535 -0.079024673 -1.4240944
0.068364434 0.28484154 -1.5067893
-0.19196813 0.29750898 -0.93630165
-0.76559228 0.24756275 1.8059422
0.012793467 0.28591675 -1.2795347
0.0184117 0.29083076 -1.1801616
-0.0077604931 0.30312857 -1.2231171
-0.23882554 0.28730038 -1.1846672
-0.27385017 0.28798243 -1.2322911
-0.37123436 0.29486743 -1.0114224
-0.20055407 0.092325814 -1.9459608
-0.20027733 0.091251515 -1.9343127
-0.62374133 0.23943384 -2.121444
-0.64658344 0.27807611 -2.2207577
-0.071495838 0.23875044 -2.8460774
-0.45520136 0.29604241 -0.85781443
1.3452781 -0.24350479 4.3564434
2.1138284 -0.40183103 3.9835701
2.0571053 -0.38977 3.9790292
2.1508696 -0.40957797 4.0488896
1.9473481 -0.33038643 3.8997767
1.3372896 -0.24082151 4.5471678
2.1261649 -0.42019904 4.0636916
1.7406826 -0.32654664 3.8016691
1.9009377 -0.35219115 3.862854
2.0786808 -0.36784235 4.0582113
2.21597 -0.3824192 4.1564531
2.1277153 -0.38209188 4.0967026
2.2083952 -0.38485041 4.1568813
2.1110008 -0.36093259 4.091033
2.1400754 -0.36899799 4.109911
1.5407003 0.015312214 4.4071217
2.2637494 -0.39255625 4.2004023
1.6878482 0.0077285045 4.0620818
1.4818956 -0.22878624 4.4962583
1.956923 0.035263076 4.3836617
1.8901547 0.042557117 4.3172531
1.572415 0.068205088 4.0525913
2.2000589 0.082926497 4.2503967
1.9757572 -0.022373857 4.135829
1.9597187 -0.02611237 4.1096778
2.3202729 -0.022926368 4.2709956
1.9400362 0.034732126 4.0821805
2.0420732 0.054923739 4.1830673
2.2286429 0.022405751 4.2849541
2.2568214 -0.021136155 4.3087187
1.3904918 0.2135298 3.4956679
1.2623396 0.2065914 3.5656192
1.5410091 -0.20603782 4.9511623
1.7404245 -0.24328148 5.0202718
1.6169676 -0.21077524 5.0187459
1.5686771 -0.19704756 4.8592854
1.7504427 -0.21507558 5.0124979
1.1335924 0.19667883 5.143456
1.3469099 -0.19248927 5.8371468
1.0475209 0.24126305 5.8785582
1.0189526 0.22667722 5.7794285
2.5677946 -0.21509832 4.4283986
2.6492801 -0.23276964 4.4909787
1.7461231 -0.18039797 4.9747357
3.6559818 0.23093034 3.9220538
3.3866735 0.018110875 4.0373454
1.3534142 0.20422891 3.6858766
1.3656379 0.20819747 3.7033591
1.5089349 0.18980822 3.8893006
2.0439034 0.054647423 4.1776967
1.890626 -0.019953124 4.0387559
2.0302896 0.05654037 4.1671939
2.5839086 0.17101318 3.9141791
2.4365499 0.15831777 3.8524301
2.5450695 0.16627203 3.9107504
3.7102494 0.05637373 4.2617626
2.7715726 0.022796363 3.8662901
3.4297509 0.17388009 4.1778517
3.3968792 0.16518858 4.1574092
2.5941088 0.12942888 3.8859687
3.785897 0.063019253 4.3456945
1.1382475 0.21780297 3.5131812
1.4690752 0.20972915 3.557395
2.4591515 -0.40683728 3.9937017
1.7721183 -0.2203858 4.6811633
2.6638432 0.22375359 3.4323347
2.046788 0.0085395509 4.2397637
2.9041841 0.25151712 3.5046089
2.4664688 -0.13587725 4.0173411
2.0766127 0.013853667 4.2633991
1.8056682 -0.038448703 3.9046164
2.5174682 -0.24213199 3.8438103
2.5150263 -0.59830099 3.9485836
2.4823198 -0.58911163 3.9364507
2.3462453 -0.23191801 3.7668788
2.4245379 -0.23660834 3.8070199
2.386605 -0.36345407 3.700175
2.3443408 -0.35877487 3.6868596
2.1746211 -0.31031346 3.909745
2.2983434 -0.26025847 3.6935415
2.4074435 -0.27843177 3.7421427
2.2167835 -0.30132997 3.6380591
2.3724346 -0.32471567 3.7219529
1.2341461 0.20944837 3.5528893
1.165729 0.22748269 3.8191762
1.1694313 -0.18549144 4.4348741
1.4071728 0.17961501 3.8880594
1.0959625 -0.14839432 4.202455
1.6799254 0.21445996 3.7896826
1.351823 0.20450754 3.6884944
1.9669964 0.22241417 3.366164
1.5822752 0.19440074 3.7088091
1.6122451 0.20135255 3.9111304
2.0460894 0.2287084 3.3638096
1.7100317 0.21029375 3.7858014
1.4632875 -0.47542039 4.4680939
1.4472914 -0.54997933 4.4349132
1.4181383 -0.43236285 4.3671002
1.4950159 -0.47161174 4.4988713
2.2228653 0.22336693 3.6174543
1.7325673 0.021286193 4.2047806
1.6459489 0.060216881 4.2249727
1.6652187 0.065961316 4.2328029
2.3807862 0.2180555 3.4943583
2.4491589 0.22639278 3.5168734
2.4134758 -0.30178741 3.8842859
2.4160776 0.20472303 3.5129712
2.4975586 0.21807344 3.5481591
2.3052304 -0.37915555 3.9363987
2.385608 -0.11214567 3.968931
1.7198114 -0.51693583 4.6746511
2.368681 -0.31768978 3.7929649
2.4361036 -0.35599059 3.8262832
2.4341722 -0.3301416 3.8185544
2.4050338 -0.28783366 3.8186836
1.9845226 -0.012730704 4.103034
2.0461719 -0.0039952775 4.1457815
2.5006959 -0.55184925 3.98048
2.5110357 -0.57560062 3.9720151
2.7399304 -0.63550556 4.0914145
2.4371939 -0.55346203 3.9347472
2.5296106 -0.57989895 3.9833939
2.4125984 -0.30541319 3.7715094
2.4922445 0.14529285 3.9385076
1.8246101 -0.12555742 3.8540134
2.3395088 0.1633922 3.6432071
2.5511672 0.15351039 3.9600272
1.804709 -0.21564582 4.6463814
1.4897333 -0.42226291 3.696965
1.5036978 -0.43017644 3.7090435
1.5012016 -0.42967662 3.7060106
1.4923633 -0.42553073 3.6958659
1.48824 -0.36471677 3.7171361
1.5400585 0.19792549 3.7162054
1.9748619 0.22215614 3.3416138
1.7055451 -0.013838983 4.0057092
2.419385 -0.22611009 3.8912868
2.2146006 -0.13411283 3.8600893
2.34268 -0.32503945 3.810235
1.7809944 0.080931291 4.0704541
2.1683586 -0.30022722 3.8774948
1.8339187 0.08180856 4.1145258
2.1432941 -0.21186472 3.8271909
2.4656203 0.20321818 3.7017214
2.0507982 0.010492447 4.2507367
1.7383754 -0.53113997 4.7226691
1.7496321 -0.54581892 4.7513647
2.4517865 -0.3023712 3.8336535
2.3561468 -0.287348 3.7954712
1.7023938 -0.51793694 4.6597948
2.5011437 -0.34065241 3.8653591
1.7280356 -0.52394331 4.6907539
2.4040239 -0.28687808 3.8183813
2.8213296 0.21942337 3.5928109
3.2511349 0.25302616 3.5592089
2.6110265 -0.0064584692 3.9131777
2.6119227 -0.0011759086 3.9225903
2.6108243 -0.0047988053 3.9201777
2.5787785 0.11501015 3.8780551
2.7524087 -0.010396137 3.9813328
3.2364473 0.23900966 3.6867487
2.6436582 -0.51245469 4.3497038
2.6436734 -0.22999491 3.5975065
2.6564777 -0.26005226 3.6050231
2.5739069 -0.22893099 3.5599594
3.5911174 0.24782023 4.102777
3.911479 0.25874701 3.9309669
3.4167426 -0.31053495 3.7698722
1.6724086 -0.27932349 3.7574663
1.7947655 0.093829244 4.0696473
1.4851922 -0.053195 4.1655612
2.1567664 0.22048496 3.4041338
2.1069973 0.21353342 3.4267671
1.6843424 0.069784306 4.2115164
1.6878096 0.069678582 4.2159553
1.6303382 0.0043394412 4.034337
1.7494032 0.023159783 4.1795835
1.3829107 0.21481322 3.5191529
1.9880923 -0.25491279 4.7637382
2.893748 0.2308397 3.6080954
3.2149653 0.24786825 3.3273494
3.2309937 0.25121915 3.3323946
3.2324953 0.25180799 3.3422735
3.8091998 -0.20157492 3.9013271
2.6126304 -0.16411039 3.5795648
3.024359 -0.50091916 4.4932218
2.7130311 -0.43528536 4.2692266
3.0835621 0.24216107 3.5278165
3.7506566 -0.33368513 3.8814385
4.9925313 -0.38409764 4.236536
2.2463846 0.22686841 3.6241632
2.2398844 0.22709569 3.6196499
2.0185463 -0.00059041037 4.1439452
1.8629515 -0.5111807 4.6287336
1.8346156 -0.55461776 4.6241941
2.7482176 0.23672831 3.4790723
1.8488933 -0.55859214 4.6386123
2.3862031 -0.34662056 3.789947
2.452419 0.19244914 3.6984148
2.4208872 -0.44148391 3.8190191
1.8837249 -0.24378675 4.7736182
1.9244859 -0.48180506 4.6344323
2.3733141 -0.21595021 3.7319355
2.4270775 -0.49180034 3.8923383
2.5659807 0.22940485 3.9531639
1.765002 -0.3137933 3.7666881
1.6534154 -0.14391755 3.7099917
1.7319964 -0.14835094 3.7706888
1.7088034 -0.30007952 3.7021101
1.7022439 -0.26865536 3.7136908
1.7012372 -0.26712677 3.7115788
2.2220948 0.22275086 3.6169963
2.478004 0.2194965 3.5514951
2.4481695 -0.22821014 3.7938905
2.4501247 0.19614711 3.6962969
2.4694941 -0.39773557 3.7422099
2.5062785 0.20372868 3.7113824
1.9088902 -0.12227997 3.6900289
2.1993043 -0.084450856 3.9142971
2.8166313 0.21990407 3.5711088
3.0533822 0.25907856 3.2849472
3.6072197 0.29652077 3.3425672
3.3070004 0.25995621 3.5012949
2.5573354 0.050238501 3.8795373
2.6424644 0.063984975 3.9283497
2.5585639 0.088667244 3.8706341
3.3288407 0.24249803 3.4743614
2.6026387 0.073956758 3.8888035
2.5932281 0.078941256 3.8854988
3.0549099 -0.56860518 4.4685564
3.0065436 -0.50453621 4.4932137
3.0361047 -0.54991126 4.4518566
2.9530737 -0.45777783 4.3878307
2.9991412 -0.48148355 4.4520969
2.8825977 0.025764417 3.9575229
3.1205726 0.037500337 4.0619998
1.5562956 -0.40263626 3.6090913
1.5628525 -0.28125525 3.688081
1.5487014 -0.24190931 3.6918194
1.5788625 -0.28628525 3.6904771
1.7213362 -0.11677358 3.7702723
1.6701679 -0.12203684 3.7238896
1.7054185 -0.014406296 4.0130939
1.7006216 -0.015060595 4.066884
1.5824908 -0.25430652 3.7195067
1.6579475 -0.2787877 3.7735834
1.6691585 -0.034347445 4.0441256
1.598935 -0.27393669 3.71872
1.5719445 -0.26968336 3.6946599
1.7859235 -0.35453269 3.8108139
2.1526759 0.22319652 3.436348
1.6719464 0.086790487 3.9608569
1.6715964 0.054686889 3.9689341
1.5868587 0.058031946 4.160584
1.6434803 0.065849185 4.2311521
1.6382277 -0.010303854 4.2154584
1.6349953 -0.0084507195 4.2086177
2.140552 0.2171775 3.5941429
2.1790385 0.22553496 3.6116512
1.7852005 0.082135692 4.0694633
1.9981009 -0.010472647 4.1124525
2.0150023 -0.0087272916 4.1247616
2.5270703 0.23490785 3.5261052
2.4788694 0.22587225 3.5141008
2.4527645 0.215646 3.5330963
2.4778466 -0.35155511 3.9010825
2.4393249 -0.29086104 3.8347063
1.6237639 -0.12642422 3.6875319
1.7276251 -0.28769374 3.7237971
1.6754464 -0.13841049 3.6996408
1.6760255 -0.015695317 3.8963871
1.6487756 -0.032846063 3.8222487
1.6573199 -0.032831136 3.8576796
2.024971 0.26449412 3.6732979
1.9693021 0.2326927 3.5904295
1.8939883 -0.32741156 3.7249715
2.3154097 0.22480719 3.4586511
2.4521017 -0.3339974 3.8486588
1.5377172 0.16080567 3.656565
1.572773 -0.26461077 3.705754
1.5846913 -0.28897405 3.6942954
1.6153259 -0.14377457 3.7202337
1.5952476 -0.2712256 3.6633272
1.6053256 0.21325217 3.7501354
1.4626433 0.21884155 3.541594
1.5548685 -0.38797817 3.6151617
1.5135264 0.1885549 3.707176
1.5533671 0.19864959 3.7225001
1.5494521 -0.38304138 3.611248
1.5874104 -0.39901093 3.6391847
1.5746183 -0.39401603 3.6290479
1.5960885 -0.40035489 3.6442511
1.6118273 0.20051101 3.9054458
1.6239116 0.20387976 3.9266376
1.6679816 -0.032574035 3.8600194
1.6693794 -0.023242367 3.8472924
1.6643097 -0.022562331 3.8413079
1.8789608 -0.28947601 3.7807121
2.2231991 0.23525973 3.651346
2.3198233 0.19986072 3.9559009
2.6430504 -0.21162727 3.854207
2.8299162 0.22650976 3.5743868
2.276171 0.13771608 3.8364921
2.8022838 0.022562528 3.9233494
2.3304102 -0.028774973 3.9790704
2.7878408 0.027170112 3.9061699
2.7640374 0.06970346 3.9751129
3.3509488 0.26161 3.5366001
3.0231321 0.22319041 3.496788
3.0150747 0.20822741 3.554796
2.2870426 -0.3166756 3.9300039
2.9209557 0.15275043 3.7781897
3.8407369 0.2562072 3.8141367
1.6241306 0.19341891 3.7857218
1.6816963 -0.25492996 3.6836755
1.664922 0.062662214 3.8086212
1.6531976 -0.033598699 3.8234184
1.9078677 0.22723018 3.1117396
1.8024926 0.21762493 3.8113658
1.7836061 0.21049441 3.7999806
2.6383629 -0.50463521 4.19876
1.4471004 0.21303159 3.526504
1.5259005 0.19176315 3.6529555
2.3782327 -0.3188608 3.7168453
2.4685133 -0.32430378 3.8539445
2.4396727 -0.32131669 3.8133082
2.4823451 -0.53762245 3.748163
2.7570841 0.1481632 3.7752078
2.5412979 0.14657655 3.884136
3.2807894 0.18631603 3.9099422
3.6263876 0.20504025 4.0305061
2.5429809 -0.032969818 3.9407895
2.6128638 -0.42753661 4.1737142
2.5881829 -0.43823314 4.0726562
3.0994725 -0.51654482 4.2453351
3.289115 0.23541635 3.6162887
3.0959845 0.0014687709 3.8796277
4.7342539 -0.20821209 2.6021042
1.5889367 -0.15505563 3.7052708
1.5266458 -0.14413667 3.6534479
1.5550699 -0.15409863 3.672323
1.7280281 -0.28014863 3.738991
1.3880907 0.21172072 3.5306692
1.8621707 -0.27142572 3.7169211
2.0520713 0.21580502 3.6442804
2.1754227 0.22323464 3.41114
2.2309124 0.070575766 3.9762471
2.4824159 -0.3899551 3.8499212
2.5564885 -0.20287947 3.8123541
2.6366808 0.12753844 3.7910759
2.4897487 0.1724814 3.9601455
2.7703741 -0.28668553 3.6333072
2.579231 0.060155112 3.8965645
2.8787866 0.0021577289 3.8385804
1.4934149 0.21490009 3.5841119
1.6699213 -0.03181091 3.8597043
1.9019661 -0.28810075 3.7677045
1.8080256 -0.26611772 3.7090008
2.1547983 0.1961474 4.0510015
2.0592642 0.23673947 3.3985622
1.853008 -0.32456738 3.7044821
1.892682 -0.32712156 3.7242951
1.8728726 -0.27249086 3.7269106
2.1154256 -0.30139589 3.8751123
2.2977192 0.19450375 3.9410236
2.2483704 0.13286698 3.9344494
2.38256 -0.34127468 3.7084846
2.6153018 -0.34672153 3.887954
2.3594282 0.16299747 3.9912009
2.464684 -0.38499936 3.837733
3.2987809 0.27972844 3.512331
1.8895438 0.22157964 3.5220199
2.2451465 -0.30099696 3.8983803
2.3908505 0.22032103 3.501061
2.3333573 0.21145986 3.5058773
2.3999097 -0.36631083 3.7080824
2.3413301 0.19863622 3.6027749
2.4505239 -0.27302381 3.8492298
2.4184101 -0.3253864 3.7433243
2.5983822 -0.38922751 3.9038494
2.4445052 0.17532684 4.0417061
2.5601144 0.21443765 3.747396
2.4918871 -0.25407693 4.0492649
2.5581043 0.19238058 3.9330962
2.5891817 -0.22551903 3.5765884
3.8625631 0.33653152 2.8744893
2.6643312 0.066698544 3.944272
2.6519306 0.077327721 3.9116118
2.8032546 0.024747048 3.880218
2.6720097 -0.2597633 4.0659142
2.7792051 0.027730944 3.8717666
2.8160431 0.025757212 3.8869908
2.8011355 -0.4847106 4.300961
2.9480879 -0.53738534 4.4114742
2.8692551 -0.40626764 4.1570001
3.3248212 0.243984 3.4706645
2.8845775 -0.51351786 4.1471376
1.5251769 -0.26945511 3.652019
1.6236718 -0.27800903 3.6633255
1.6346638 -0.10134457 3.6903524
1.6737481 -0.11060302 3.7213719
1.6450813 -0.10055058 3.6913753
1.681915 -0.29090521 3.6873658
1.6591119 -0.26820236 3.6751471
1.7032146 -0.25740972 3.6894259
1.3884043 0.2009697 3.6685715
2.5568898 -0.58678579 3.7043269
3.0885677 0.18523662 3.8047128
2.5438454 -0.041295938 3.9892712
2.5001919 0.1997239 3.7232594
2.7757945 -0.33684441 3.5906284
4.8765202 -0.63804364 4.2363958
2.9511015 -0.36188501 3.6484811
2.6484165 0.18898213 3.7908516
2.7613037 0.19547571 3.8380275
2.8259883 0.20482904 3.8621683
2.7746418 0.19818503 3.8421092
2.7616456 0.01387452 3.9867723
2.9277706 -0.4861609 4.2536626
3.3913004 0.22143735 3.2841506
4.9027786 -0.10847668 2.4741857
4.7104836 -0.20446479 2.5114408
3.0959687 -0.0082820132 3.8517222
3.3368411 0.24893288 3.4752564
4.6964998 -0.28960603 2.4960563
4.5694585 -0.0024628513 2.575532
4.6659093 -0.28494975 2.5654254
4.666719 -0.491833 2.6059995
3.9166048 0.25981489 3.9329503
4.6894283 0.015732273 2.5358133
1.5260024 -0.27089751 3.6517148
1.5627267 -0.26370096 3.6921778
1.5605272 -0.14863563 3.6907723
1.7153684 -0.11071859 3.7301269
1.856351 -0.27183133 3.7247622
2.1550748 0.22274475 3.4376833
1.5578725 -0.27345842 3.6632097
1.5382155 0.20696621 3.6288028
1.6847956 0.20872252 3.7707331
1.6809646 0.21347719 3.7642682
1.9649073 0.24756514 3.6314065
2.0149646 0.22448888 3.5170019
2.2224162 0.067611024 3.9702477
2.2027278 0.20209733 4.089941
2.4112835 -0.35295001 3.7937787
2.6904869 -0.40791029 3.9597695
2.5360029 0.14301394 3.8796957
2.6404483 0.13149343 3.7937834
2.6812522 -0.23295116 3.6105552
2.4138749 0.15842217 3.9584825
2.7934654 0.0048510614 4.0019398
2.6849473 -0.43017939 4.2514639
3.180027 0.24193874 3.4707685
2.9356225 -0.55516231 4.364007
2.6579947 -0.45760497 4.1910539
4.6137042 -0.50028539 2.608115
2.7181487 -0.46377453 4.0451951
3.0560427 -0.22582982 4.3724332
3.9807446 0.2595714 3.3336661
4.1128211 0.26569384 3.3681118
2.8635094 -0.53037506 4.1282043
4.7506013 -0.22183324 2.5888629
3.6008568 0.23879027 3.8052361
3.4267757 0.20635624 3.7182708
4.2159176 0.27015769 2.5974152
3.7050862 -0.1099875 3.5949938
2.1805069 0.21391381 3.5940142
2.4321027 -0.22278847 3.7772491
2.4787276 -0.26845643 3.5205557
2.5551667 -0.24495654 3.5693789
2.8572953 -0.18124381 2.5583813
2.4575901 -0.26939324 3.8511803
2.546139 -0.50023115 3.5901408
2.344418 -0.22606307 3.8605671
2.5297587 -0.025166633 3.8943894
4.7725487 -0.0053565106 2.4377124
2.5472419 -0.51426029 4.0426707
4.7883492 -0.044299152 2.4584396
4.5940576 -0.34187809 2.6023607
4.7351475 -0.18485038 2.562449
4.6371017 -0.20903696 2.6072052
2.7316775 0.097312607 3.9950809
2.7113795 0.10216572 3.7600131
2.7908411 0.092680074 4.0289469
2.7900133 0.090378366 4.0265694
2.7268653 0.081639215 3.995167
2.7443786 0.046436649 3.8701556
2.8338513 -0.50630897 4.1184406
2.8612547 0.019076064 3.904783
2.8024483 -0.43296024 4.0907865
3.0423865 0.22705483 3.4471622
3.7089083 -0.28049806 2.571512
3.7033606 -0.27632472 3.4477496
3.9839723 0.26218882 3.3572586
3.7848811 -0.27246368 3.4544961
2.496187 -0.26309511 3.5046675
1.9706482 0.23222746 3.1305366
1.8504713 0.21694736 3.5007648
1.8173233 0.21506286 3.5141804
1.8588588 0.22052062 3.5148373
2.1758852 -0.30710274 3.9095929
2.3632236 0.21633801 3.5269985
2.8102186 -0.4979606 4.2392654
2.842665 -0.49946365 4.2486339
2.9201806 -0.51192516 4.1792593
2.9931881 -0.45301467 4.2220898
2.6827002 -0.39431894 4.0186443
2.9577742 -0.54542333 4.1740379
2.8274057 -0.3977915 4.1313486
2.9749436 0.037969753 3.8113153
4.2284265 -0.28633228 3.7376435
3.9387834 0.24976343 3.8252623
3.890718 0.27969983 2.8338299
4.8340397 -0.09826465 2.538846
3.7427263 -0.21491188 3.6654975
3.7809856 -0.19018275 3.6563046
3.7347445 0.23706982 3.7524135
2.4085546 0.18864977 3.6788466
2.5367351 -0.11544196 4.0784669
2.4647429 -0.24929321 3.9214759
2.6159921 0.1692782 4.0104709
2.5024858 -0.25115925 4.0951476
2.5144498 -0.24933316 3.5449181
2.489253 0.15936367 3.9410055
2.5827639 0.17414132 3.7373974
2.6928415 0.14636555 3.7393832
2.7572205 0.0858844 3.8473155
2.7894258 0.017671779 3.8735461
2.7177727 -0.45790887 4.2517052
2.7457616 -0.52803057 4.2757311
2.8658137 0.022120735 3.9104831
2.7810049 -0.49066174 4.2907629
2.4367762 -0.40300512 3.5390079
2.7550833 0.23014048 3.2300129
2.59728 0.12859568 3.8906755
2.6629765 0.040582132 3.9398208
2.4819593 -0.24999626 4.0445566
2.5684104 0.18362963 3.7222826
2.5447807 0.16776018 3.8878348
2.5040741 0.18145385 3.6997521
2.6767533 -0.24650729 3.5754521
2.514997 0.18111996 3.9773679
2.5816865 -0.11992109 3.5561771
2.5484171 -0.1353012 3.5441103
2.5525482 -0.13595408 3.5416915
2.6206555 -0.11248713 3.5512748
2.6984465 -0.30491886 3.5525222
2.9220891 -0.45772403 4.0726628
2.9975173 0.21708941 3.5986526
2.8100677 0.081263311 3.8753793
2.8206747 0.078804538 3.8812194
3.9977691 -0.17754196 2.4416311
1.915274 0.21391712 3.5308025
2.1569307 0.21969481 3.4043119
2.2001593 -0.30640182 3.9209759
2.3417394 0.21246451 3.506135
2.8818827 0.017400026 3.9152465
2.9693394 0.21494025 3.4796801
3.4529459 0.21019122 3.7941582
2.9424372 -0.52527809 4.1934705
2.8109109 -0.44482622 4.0416222
4.4285159 0.041200023 2.2230034
4.365623 0.0095268423 2.3919022
3.8087666 -0.28971186 2.5562027
4.5783105 -0.23525551 2.4064634
4.3738651 0.30486363 2.252382
4.3335471 0.23554072 2.2261887
3.1744733 0.14863774 3.81657
2.3964415 0.18891054 3.6618605
2.4650409 0.21657011 3.8921299
2.769551 -0.080500782 2.523191
2.7943637 -0.20955765 2.5413725
4.0778122 -0.34968898 2.2752895
2.4331915 -0.47923228 3.5614741
3.7709377 -0.25652903 2.3479929
2.2641931 -0.41138539 3.4836512
2.6969354 0.13875821 3.7308636
2.9737446 -0.14687984 2.5603659
2.6337571 0.050609734 3.6671135
2.5665944 -0.039178524 3.9974611
2.9594176 0.25171539 3.2468364
2.8771729 0.0018261209 3.8284767
1.9924241 0.21673037 3.3647361
2.1757834 0.21236883 3.5895946
2.3059485 0.21347368 3.4888744
2.3481078 0.2138698 3.5236821
2.3835003 0.20844057 3.8328166
2.4082794 0.2093949 3.8502319
2.0016518 0.22223566 3.346935
2.5880091 -0.04601495 3.5239174
2.6474781 0.14072779 3.7002182
2.6500776 -0.13207221 3.5241728
2.6183 -0.20386411 3.4923668
2.7902663 0.047883511 3.7495189
1.9200736 0.21799029 3.5315981
2.2520916 -0.29066902 3.8137033
2.042248 -0.26380065 3.6737602
2.6668119 -0.18560117 3.5364296
2.7286696 -0.22023527 3.5339596
2.8515065 0.20700422 3.5047109
2.6616521 -0.48130637 4.0140471
2.7991221 -0.48472738 4.0920525
4.6099358 -0.022313183 2.1931882
4.3421578 0.22642453 2.1450832
3.9331348 -0.35278088 3.5520513
3.7648745 -0.16668165 2.482491
4.5553689 -0.23950946 2.4144328
3.7657118 -0.33382517 3.4539797
2.4647379 0.19907402 3.6939666
2.3218617 0.16971138 3.6225719
1.9447448 0.22193193 3.5442281
2.1420088 0.21826293 3.4275095
2.5076318 0.18303348 3.6808984
2.8234684 -0.44108638 3.9660892
2.4540472 -0.44327003 3.5401766
2.5160656 -0.13278526 3.5351448
2.5527415 0.16775481 3.9233913
2.565172 0.16913991 3.93276
2.4676664 0.11119609 3.7990198
2.6292529 0.2164799 3.4179659
2.657011 -0.11638704 3.5574794
2.6531596 -0.14079371 3.5636714
2.6829243 -0.2219789 3.536077
2.6971397 0.054332167 3.6976552
2.7182968 0.13820855 3.727807
2.6479557 0.12661406 3.6990588
2.9272537 0.17707297 3.8272996
2.7884948 0.00057221291 3.7944419
2.9013228 -0.00013102143 3.8418636
1.9773341 0.23386005 3.1319997
2.6300287 -0.21875386 3.5384107
2.6615977 -0.20780313 3.5455878
2.5753574 0.038135841 3.6456294
2.6825378 -0.2078245 3.5520113
2.8962302 0.0024270585 3.842097
3.5319302 -0.11941718 3.8125947
2.9419842 -0.10950911 3.5982623
3.7690265 -0.088671997 2.1190345
3.4258711 0.1985798 3.5548341
3.4594805 0.2034716 3.4070935
3.5413229 0.21194139 3.4251194
3.4445858 0.19869567 3.400733
4.3786969 -0.23035794 2.2816846
4.476378 -0.25719461 2.1827214
3.7644451 0.13452849 2.0737693
4.0098639 -0.014157835 3.4383836
2.4240727 -0.12199277 3.5165195
2.5079832 -0.24699183 3.5405371
2.4543648 0.20045267 3.6783483
2.6509449 -0.21478838 3.5373073
3.4259381 0.21949093 2.0552626
3.2724783 0.26715946 2.3423889
3.4638886 0.18069057 2.1399148
3.5502951 0.18552832 2.1031747
3.4916577 0.22913331 3.3062561
3.6360185 0.20029235 3.8000016
4.2538567 -0.33920833 2.2888229
3.9894533 -0.23558827 2.3900697
4.011476 -0.1502815 2.3012519
3.6445932 -0.28886899 2.4042926
4.4735336 -0.13271196 2.2136831
3.7147634 -0.25656071 2.3423638
4.1241217 -0.01113473 3.5598993
4.0509233 0.20371932 3.6372976
3.9355841 -0.22267076 3.6793048
4.1081018 -0.23519534 3.7260416
3.4685485 -0.21073139 2.3133943
3.2946765 0.25666693 2.1868365
3.3275151 0.26271391 2.1737797
3.3490374 0.26702175 2.1654751
3.4279127 0.23523022 2.1458282
3.3885045 0.22078629 2.1594262
3.3409867 0.20905508 2.1757174
3.3958619 0.22411606 2.1580646
3.6675766 0.2524963 2.1078298
3.2365654 0.25981948 2.3616183
3.4468 0.24548957 3.3314857
3.831085 0.23874621 2.118696
3.8345277 0.23386753 2.1226029
3.48931 -0.099755518 2.3025665
3.7885277 0.21930248 2.1420777
3.5719321 -0.2466989 3.3537672
4.1122847 -0.29166731 2.3819058
4.6590524 -0.34758776 2.1565402
2.2890215 0.22073755 3.4438457
2.8941066 0.25519544 2.30708
2.7568059 -0.13705079 2.3644259
2.7710459 -0.13743494 2.3569763
2.8365095 -0.13810866 2.3234828
2.7247629 -0.19001177 2.3817053
2.7441595 -0.19189726 2.3757222
2.7224538 -0.31653041 3.5997319
2.3234777 0.22813751 3.4551268
2.8166845 -0.49679053 4.1211996
3.2412307 0.28336069 2.3427882
3.3573973 0.26582646 3.2848248
3.1190815 -0.50063467 4.134685
3.4209476 0.24354422 3.3343098
4.3501019 -0.046438161 2.2672842
4.6452665 -0.36412519 2.4193132
4.583086 -0.1961977 2.219038
4.6896634 -0.3129701 2.0825412
3.7825971 -0.28054434 3.3937364
2.8797295 0.049238428 2.2663784
3.1633196 0.18766944 2.156033
3.0837431 0.11844569 2.1781571
3.088063 0.22590257 3.2390258
3.3064415 0.25899771 2.1793168
3.2437458 0.25060743 2.2145674
3.4857802 0.2298983 3.309972
2.6763837 -0.11243801 3.4338944
2.8894875 -0.108432 2.3097651
2.5346642 -0.2284555 3.3983483
2.7462177 -0.22692761 2.3742499
2.6666942 -0.22858299 2.3853695
2.7579014 0.20862107 3.3943419
2.7126071 -0.13001618 2.3723743
2.7262454 -0.15191847 2.3746171
2.8521404 -0.13583501 2.3178434
2.5308406 -0.22918069 3.401134
2.5037575 -0.083485737 3.4365337
2.7507007 -0.19017504 2.3753312
2.5555551 0.24713661 2.5687103
2.9129167 0.26326981 2.3489976
2.9874516 0.27484509 2.3150146
3.6098158 -0.081909426 2.1476705
3.1054444 -0.16339491 3.5766137
3.8549116 -0.28671494 3.3149788
3.3435919 -0.26304421 3.5793676
3.9309859 0.16751869 1.9699016
4.168283 0.24063881 3.4216509
3.8765461 0.16461666 2.0126803
3.7729795 -0.11586374 3.6062579
4.1088724 0.18763547 3.5934753
3.9833429 -0.27459446 3.7042947
3.7417729 -0.25406113 3.634877
3.5769286 0.14892046 3.5054226
4.1589289 -0.36298418 3.8305368
4.7565908 -0.14514512 2.1653607
4.1811686 0.27251932 3.9053974
4.2260818 -0.029035095 3.9907217
3.986393 -0.033498447 3.9068468
4.3560896 -0.32122064 1.9950266
4.3771644 -0.31631148 1.9987723
4.4097838 0.044511572 3.770438
4.3570671 -0.40382028 1.9789028
3.1333127 0.23205081 3.2957752
3.4272974 0.22569309 2.0596101
3.1597216 0.21123931 3.5654733
3.4183521 0.24210779 3.3280256
3.3654649 0.23165025 3.3077135
3.4814575 -0.22606079 3.3112962
3.7464018 0.23648861 3.4685614
3.5121176 0.20884876 3.4169636
3.6435986 -0.25735816 3.6586928
3.7210288 -0.24498199 3.3116596
4.8247299 -0.54853213 2.2131371
3.807816 0.20778887 2.1091304
3.6268482 -0.20642659 2.4135478
3.6936815 0.1737607 3.5458865
3.8285847 0.11287928 2.0415421
4.1656065 -0.23630431 3.7553406
4.4488649 0.0066375104 3.7124307
4.5747228 0.0047169402 3.7542784
4.4000959 0.19863099 3.8391292
4.5025115 0.32375717 2.4720974
4.3012838 0.040294107 3.7898631
3.8335302 0.24485675 3.4880333
4.3843474 -0.5164513 2.1757817
4.1302567 -0.2669346 2.2752872
3.7166176 0.014353683 3.3655522
4.1483622 0.21920905 3.3864069
3.8824039 -0.039574649 3.8725822
3.8158154 0.14415285 2.0494344
3.293721 0.21943928 3.3304412
3.3520105 -0.24653244 3.6411362
3.3370342 -0.24069718 3.623951
3.354135 -0.26210451 3.6298776
2.6737237 -0.14791071 2.3712821
2.6353176 -0.14633356 2.3754406
2.7217715 0.016157974 2.3609846
2.7029912 0.019935308 2.3706567
2.6799405 -0.24969107 3.4069178
2.6709216 -0.25778979 2.4059293
2.6906583 -0.21992251 2.39978
2.7195292 -0.15054418 2.3774338
2.7399778 -0.16183701 2.3892851
2.8093495 0.0049896729 2.3556547
4.5726075 -0.86705101 1.7754444
4.5049267 -0.95308983 2.0741584
4.8470926 -0.39980721 3.7187788
4.4446335 -0.93030185 2.1021588
4.6761127 -0.62538898 2.1892579
4.1659436 0.091040663 3.7902272
4.4214964 -0.78704315 1.7253301
4.2798138 -0.77394193 1.7722086
4.3561091 -0.78741175 1.7544144
3.8572397 0.066343322 3.7253444
4.4669814 -0.95058799 2.0264764
4.3577008 -0.79456025 1.7373812
4.4466786 -0.81075209 1.6924961
4.443099 -0.83179605 2.173079
4.3620296 -0.53463948 1.8634137
4.5213728 -0.71062118 2.1318917
4.4713125 -0.8442241 1.7364786
4.4141583 0.037255801 3.9114945
4.6163821 -0.96588194 2.1314585
4.4534073 -0.79365951 1.7107884
4.3744426 -0.92317653 2.0615528
4.3761749 -0.61651659 2.184109
4.420517 -0.45630619 1.8125461
4.3979559 -0.82314324 1.8353072
3.8620381 -0.33994693 3.1836183
4.7687941 -0.59834552 2.1146901
3.8423562 0.27740374 2.0893607
3.6797397 0.24372782 2.1108685
3.6219139 0.15702805 2.0857522
3.7722845 -0.33431593 2.2146077
4.7543344 0.026819432 3.8019917
4.0810781 0.067605525 3.5764732
4.2865705 0.043275312 3.8187478
4.6233344 -0.89010125 1.7358205
3.1227558 0.24474488 2.3773289
3.4152086 -0.20432289 3.2941678
3.0009458 0.21867566 3.1984699
4.3376474 0.087825336 3.6317322
3.9536688 -0.36975402 2.1038055
4.5000076 -0.86414403 1.784966
2.6907208 0.011703945 2.375571
3.3421206 0.19906893 2.1462967
3.4961233 -0.26720765 3.6796546
3.3743804 -0.26128027 3.5890961
3.5395811 0.20900136 3.4202132
3.5660906 -0.35480863 2.4206958
3.5969496 -0.33268365 2.4267316
4.6972013 -0.19492209 2.1261125
3.8446536 0.11457938 2.0375392
3.8117905 0.17525671 2.097116
4.3737564 -0.2159463 4.0056038
4.3184133 -0.2094961 3.9872689
4.5901361 0.21767625 3.9610925
4.2040544 -0.31218448 2.0340805
4.2831864 -0.67592329 1.9845507
2.9477265 0.25621998 2.3373387
3.0646315 0.18318208 2.1250014
3.0671296 0.26297539 2.2167292
3.1026552 0.2583119 2.3734498
3.2992127 0.25776955 2.2687659
3.6408396 -0.070735328 2.0801158
2.7287555 -0.15593971 2.3480306
2.6876676 -0.19453174 2.3706553
4.1019197 -0.48464465 3.2451527
4.1434307 0.1857473 3.5964251
4.4962339 0.21883489 3.6742382
4.1877294 -0.20758417 3.927072
4.0706611 0.0079022143 3.5893972
4.4488459 0.10583254 3.9517357
4.4119883 -0.46310687 1.8243098
4.6333799 -1.026311 1.9439508
4.4232583 -0.75146115 1.9034433
4.1547742 -0.69537455 1.9965023
4.3892803 -0.40389627 1.9587545
4.3918643 -0.40196437 1.9600096
4.4781108 -0.64464575 1.7809576
2.748652 -0.16784436 2.3655508
2.7637887 -0.16082057 2.3527091
2.80042 -0.12615134 2.347903
3.1305606 0.22465836 3.2447879
3.4193063 0.19726107 3.4806879
4.3059072 -0.010341231 3.433105
3.3854616 0.18485932 3.4626138
4.0663266 0.26624262 3.3418391
4.594501 -0.40348589 2.1342087
4.86274 0.080780737 3.6024752
3.6415124 -0.25322673 2.4366517
3.7079887 0.057822142 1.956587
4.1957378 0.23202197 3.4101026
3.5857596 0.18206887 1.9840176
3.6527638 0.18669832 1.9469879
3.9049575 0.27501321 3.8357773
3.6881137 0.25954929 2.0931382
3.7141094 -0.089493655 2.0899158
3.6442878 0.23408662 2.1271062
4.4229445 0.21028695 3.7637715
3.7225096 0.14504085 2.0239453
4.1724405 -0.18986601 3.8864093
4.4295311 0.20362622 3.2873816
4.1796145 0.038762633 3.6003435
4.3742418 -0.61456949 2.1763818
3.8386366 0.2223995 3.3066585
3.5600674 -0.24339673 2.4317625
3.569648 -0.25233752 2.4296193
3.7953954 0.14738782 3.4588504
3.6310661 -0.27600458 3.2450368
3.5629687 0.24014597 2.0865796
3.6069126 -0.26295778 2.4748709
3.2331927 0.20571259 3.3305254
2.8567207 0.21067245 3.1888258
3.1681936 0.23420492 3.2352803
3.097131 0.22320978 3.2782803
3.3335366 0.25544605 3.2645462
3.1081426 0.26695475 3.2603204
2.6407564 0.24567427 2.5333359
4.0795245 -0.46944824 2.145545
4.2494025 -0.41356996 2.0564067
4.3747735 -0.82183665 1.9725045
3.9230666 -0.2847012 2.147893
4.3909311 -0.82479864 1.9621243
4.5197182 -0.91466641 2.0617108
4.838573 -0.51173586 1.8545533
4.4189501 -0.58237481 1.5367192
4.4648056 -0.6359458 2.1603992
3.0169768 0.24782358 2.2856598
3.3315914 0.25790974 3.2701809
3.178102 0.25721207 2.3810771
3.225081 0.23317748 3.2263966
3.2342305 0.21319261 3.2358055
3.1752174 0.25288466 2.199352
3.2650745 0.24729237 2.2877903
3.1294386 0.21125294 3.2602115
3.0397723 0.21075948 3.4429886
3.4661996 -0.21337081 3.327759
3.822628 0.22390373 3.5161693
3.4057324 -0.20326352 3.3169971
3.5966754 -0.038010072 3.3393269
3.5238974 -0.3042658 2.352102
3.8638113 -0.36792904 2.2279596
3.5666788 -0.25518733 3.5817041
3.6591125 -0.02733749 3.3712211
4.0916405 0.18285897 3.659348
3.2265732 0.26010916 2.3125739
3.1365132 0.19282931 3.2879207
3.6087687 -0.23079614 3.3090084
3.7684398 0.21158072 3.4927828
3.8445747 -0.029721068 3.436034
3.7418048 -0.31024879 3.1999261
4.4450488 -0.50243145 2.0161583
3.6962233 0.25755417 2.0980771
3.7459712 0.099113077 1.9995635
3.6845834 0.14214559 2.053365
2.6236591 0.24483795 2.5388732
4.185256 -0.0080372524 3.6446807
3.1776226 0.25563443 2.334307
3.3416698 0.22364672 3.265554
3.2777002 0.21722329 3.3282876
3.2941344 0.25273293 2.275243
3.3868346 0.26758084 2.3015966
3.9248593 -0.26246884 3.3355443
3.3136926 -0.076750904 2.2417078
3.9752324 0.23430188 3.581769
3.3143408 0.21840516 3.2874517
3.3386009 0.22166936 3.2644141
3.4256461 0.24413523 3.3375194
3.1895728 0.19757913 3.308671
3.2380471 0.20053174 2.1947768
3.2931509 0.25040784 2.3119464
3.5802925 -0.20342273 3.284565
4.7030001 -0.38588068 2.0867944
3.4920685 0.19851018 2.1229408
3.6597698 0.095596455 2.0475476
3.7844622 0.11087821 1.9821922
4.3584857 0.24417548 3.3453391
3.7954426 0.1579546 3.5430827
2.8658466 0.25505292 2.3692608
3.6552544 0.039259147 1.932017
3.6740086 0.19316657 1.9389818
3.6695113 0.057542827 1.9781911
3.7521112 0.14820199 2.0080645
4.3850627 0.18618461 3.6765981
3.1364574 0.21535611 3.2201629
3.1548111 0.21218383 3.2113302
3.3689957 -0.40194729 3.2411261
3.3947167 -0.21074553 3.3689587
4.6547065 -0.89506865 2.1268725
4.6958294 -0.17477228 2.5364861
4.9195499 -0.28899685 2.1448653
4.6718116 -0.34338287 2.443886
4.792942 -0.3622945 2.423564
4.6758895 -0.26676232 2.5209017
3.7581315 0.19679786 1.9587237
3.6189864 0.092319578 2.0651872
3.9072514 -0.14055625 2.3496218
4.0903616 -0.011975136 3.6309521
4.3107414 -0.62600946 2.1212728
3.1329932 0.21328783 3.261663
3.4807746 -0.13336232 3.3058965
3.1269119 0.21624972 3.2207878
4.6712332 0.24147832 3.7242322
3.8502591 0.16614693 2.006798
3.6240795 -0.17219065 3.3613214
3.4942675 0.16396697 3.4179058
3.5053601 0.16474198 3.4214826
3.5601337 -0.26424944 2.4101865
4.3411288 -0.6050185 1.730487
4.4305172 -0.49786451 1.7282705
3.4388707 -0.19979854 3.3046257
3.5581269 -0.25570363 3.5777729
3.6043956 0.23616087 2.8389699
3.5147147 -0.29494259 2.3695107
3.4974687 -0.20270507 2.4475725
3.6242664 -0.037991691 3.3448544
3.0724525 0.21475169 3.2375412
3.6667602 0.25787508 2.0988774
3.3499599 0.26746836 2.1733015
3.3831372 -0.32406488 3.2760739
3.3869791 0.19295931 3.3841424
3.4330034 0.19969729 3.3962057
3.8329127 0.21353832 3.5319998
3.7826855 0.16757266 3.5439191
4.6358662 -0.52234077 2.1252453
3.787715 0.24276786 2.1271358
4.6660237 0.21504493 3.5216291
4.7958407 -0.33748651 2.4769166
4.5688176 -0.56786275 2.5863872
4.6338954 -0.55250949 2.4720218
4.9389315 -0.82177669 2.3939307
5.0037856 -0.52542138 2.1463981
4.207859 0.20053479 2.1906798
4.2883158 0.21028441 2.156378
4.3318624 -0.5735296 2.1905646
4.3485284 -0.67281169 1.908427
4.5119119 -0.65724552 2.0877321
4.48277 -0.84625548 1.7765826
4.3449454 -0.54839742 1.8389598
4.3189206 -0.56859493 1.7222919
4.3205743 -0.37549832 2.1829336
4.4617333 -0.45171627 2.1818061
4.8640685 -0.47657648 3.395659
3.6884267 0.1508856 3.4927018
3.8007748 -0.32737422 3.1725404
3.6128483 0.17102985 2.0508449
3.1001389 0.22220474 3.2479935
4.4750528 -0.39494637 2.4885705
4.8035021 -0.031541638 2.1659484
4.6685534 -0.27636972 2.4914553
4.639195 -0.5208196 2.5097458
3.433887 -0.084630214 3.2873502
3.3766215 0.20875664 3.2774954
3.442333 -0.18981913 3.2724915
3.3228679 -0.043599755 2.2074134
3.517864 -0.044058304 3.3228083
3.4000854 0.0083564185 2.2246139
3.4149427 -0.27889472 2.3289442
3.4085419 -0.28061727 2.3320761
3.4041798 -0.27848941 2.3336983
4.7710075 -0.17949215 2.4532087
4.6701651 -0.41770542 2.5784297
4.7591057 -0.87467414 2.0980849
4.7852354 -0.10921694 2.4867699
4.6543665 -0.25861233 2.5272155
4.7895188 -0.17552882 2.147665
4.6580787 -0.40024784 2.1617646
3.2181225 0.25266331 2.3702517
4.6582165 -0.29173669 2.5861292
4.4803963 -0.23768681 2.4297838
4.5312552 -0.23962058 2.4154637
4.7662945 -0.2041517 2.3701725
4.4583335 -0.5205847 2.4310174
3.6865716 -0.3409541 3.1457121
3.8225873 0.23091809 2.9284713
4.784564 -0.19805127 2.1456132
4.7419848 -0.14915921 2.1668069
4.7634444 -0.14189124 2.1649318
4.782187 -0.14013217 2.1618462
4.7220259 -0.21495619 2.1571465
4.8593054 -0.26358199 2.1570349
4.7007928 -0.0023069715 2.1545451
4.8207955 -0.2149547 2.346092
4.8360476 -0.071206115 2.3521938
4.5811167 -0.25043473 2.2312856
4.5775466 -0.14661339 2.2109842
4.8557043 -0.78939396 2.4399068
4.7116227 -0.48070329 2.2279437
4.8445554 -0.82176578 2.1483262
4.9750571 -0.48647016 3.3720031
3.3512082 -0.28149098 2.3706899
3.4734886 0.24709481 2.0657237
3.529171 -0.23820253 3.2659848
4.0848103 0.23325872 3.3926833
3.4948227 -0.22213444 2.4294183
3.4843576 0.17110738 2.2291732
3.654397 -0.02968725 3.3753743
3.5238297 -0.23704134 2.2825136
3.5251031 -0.043063711 3.3269248
3.5853739 -0.22417809 2.4557469
3.604419 0.21189824 2.0140119
4.6831069 -0.39313093 2.1644385
4.7482748 -0.20430237 2.3756728
4.6814704 -0.071430936 2.3953013
4.7789254 -0.10510194 2.3810198
4.6907687 -0.51904505 2.1040044
3.9577868 0.19480383 3.3307798
3.8235281 0.17825618 2.0882537
3.7550187 0.1677404 3.2564409
3.3432555 -0.043933798 2.1949503
3.352212 -0.075774528 2.1795528
3.5114272 -0.04812545 3.3217702
3.5193963 -0.31549206 2.3806069
3.382875 -0.085087448 3.2801931
3.4069223 -0.083434381 3.2794151
3.5828226 -0.14811441 3.3421476
4.6303945 -0.70323104 2.5527794
4.6366611 -0.70053196 2.492166
4.7186084 -0.07439331 2.3844213
3.2483439 0.24242876 2.2975223
3.3633602 -0.081611149 3.2585788
4.2983794 -0.65045005 1.7225397
4.7138958 -0.33030969 2.5823979
4.7352171 -0.37029341 2.3934157
4.7090831 -0.21030135 2.5071738
4.3578677 -0.42476287 2.578095
4.708106 -0.61214864 2.4467044
4.9007463 -0.56853616 2.4913681
4.4629836 -0.26681909 2.2123389
4.4372201 -0.45492551 2.4422665
4.6261997 -0.52155894 2.4863682
4.5463724 -0.64858186 2.4061737
3.4030514 -0.28014269 2.3350909
3.541497 -0.025844576 3.3681407
3.5855973 0.094266959 2.1596127
3.6175649 0.099984735 2.1494114
3.1861749 0.23459448 2.3612731
4.1012325 0.24660864 2.1143577
4.3783331 -0.74907124 1.9591482
4.5951796 -0.74112445 2.1188242
4.5543327 -0.63102132 2.1365695
4.5256267 -0.54442048 2.1529236
4.6725492 -0.74487835 2.3675451
2.9969101 0.21707095 3.1935818
3.0543213 0.20920455 3.2304134
3.3973114 -0.29380965 2.3308637
3.5413969 -0.32463378 2.31498
3.6216388 0.16412391 3.3516636
3.6423213 0.16483334 3.357578
3.5927441 0.12969717 3.3865168
3.2739167 0.21151151 3.2790999
3.3335071 -0.1800904 3.2933953
3.868962 0.23391792 2.5919166
4.7607269 -0.11654976 2.1280887
4.1816001 -0.45457381 1.9139817
3.6173096 0.17272949 2.0721743
3.6265683 -0.088266373 2.0944479
4.7300339 -0.12048917 2.141804
4.7218237 -0.34225842 2.1310086
4.1507926 -0.46056634 1.9181119
3.2821352 0.21092977 3.2449484
3.1374509 0.21186562 3.194371
5.0764256 -0.54706788 3.3858118
5.4044738 0.0024436645 3.8026118
4.9253268 -0.11975648 2.2856078
5.0588522 0.085781917 2.1269922
5.3463206 -0.015823193 3.460721
4.766983 0.066077694 3.5838273
4.4205122 -0.21077596 2.336165
5.1024489 0.093750708 3.686106
5.1721449 -0.63251549 3.3962905
5.0650067 -0.11702788 2.2479379
4.5645308 -0.55215359 2.0973685
4.5737624 -0.55975354 2.0993755
4.5516753 -0.55235672 2.1290572
4.7357769 -0.39235356 2.0727539
3.9227583 0.18826562 2.0421987
3.8472669 0.17741512 2.0813119
3.9159114 -0.25581253 2.3597345
4.0450029 0.26561549 2.3281589
4.3445764 0.23988327 3.2747688
4.2833123 0.23570365 3.3790867
4.7303848 -0.34838444 2.1248081
4.6773868 -0.72532511 2.2762308
4.7792635 -0.62471092 2.4364626
4.6510544 -0.52946115 2.4837713
4.5933576 -0.51594251 2.1403575
4.7309976 -0.13010983 2.4970872
4.5974932 -0.5613994 2.4057755
4.734724 -0.57111442 2.111496
4.9817123 -0.03722721 3.3427584
4.757153 -0.85039639 2.1268685
4.7191467 -0.21551418 2.1537266
4.7270312 -0.66653383 2.1601787
4.7224274 -0.6865356 2.1486995
4.955781 -0.51807606 2.1722925
4.9345818 -0.81853825 2.4343848
5.0300965 -0.010777115 3.6907759
4.9706855 -0.53522539 3.3670747
4.736114 -0.41633061 2.1048439
4.786509 -0.39765227 2.109129
4.6539817 -0.58013767 2.3905408
4.7691693 -0.088927642 2.4903579
4.5181417 -0.21717645 2.3961022
4.8119297 -0.064375386 2.4993675
4.8120098 -0.15190138 2.1298738
4.7599087 -0.25130734 2.1329031
4.8212538 -0.075049885 2.5148039
4.6735454 -0.23001556 2.3053613
4.8819742 -0.29301253 3.3871191
5.049489 -0.3147305 3.4310164
4.7000294 -0.58551455 2.1421371
4.7937021 -0.6398657 2.1378398
6.2846475 0.056999635 3.9374313
4.9991283 -0.85168433 2.4354107
4.6843939 -0.35732979 2.2773995
5.2799392 -0.59925193 3.4437973
4.5504985 -0.48736501 3.1676855
5.0332432 -0.51055974 3.4342062
5.1796374 -0.41587621 2.1632071
5.1073308 0.054161847 3.4361022
5.179616 0.02199341 3.6238115
5.1576581 -0.93402386 2.5391355
5.2195811 0.00269198 3.5145543
4.4850497 -0.20833884 2.3163102
5.1107321 -0.94117045 2.4386504
4.1310916 0.2156983 3.3787987
4.0992203 0.20894997 3.3235512
4.5136561 0.22200082 3.1989119
4.7460189 0.2272833 3.5619891
4.5791922 -0.493435 2.1398275
4.491621 0.17477328 2.4921196
4.9351354 0.25372756 3.534306
4.5367894 0.18379746 2.4840422
4.5082822 -0.6781227 2.3072159
4.6116939 -0.61155808 2.387224
4.6536803 -0.68900543 2.4534986
4.6783938 -0.41851878 2.1128256
5.0790677 -0.31619912 3.4358442
4.8642406 -0.38222042 2.0729265
4.4104977 0.041529045 2.2418573
4.7037401 -0.18566082 2.5620766
4.7404275 -0.16988669 2.1124995
4.7356529 -0.041424375 2.4778574
4.770196 -0.027288159 2.4765992
3.5081596 -0.18369472 2.2913198
3.9803488 0.20673777 3.3670828
3.6902161 -0.014684098 3.274065
4.6136718 -0.44974333 2.0926442
4.5609646 -0.43147045 2.1153176
4.9350448 -0.29241922 3.3996897
4.7040052 -0.53728825 2.499459
4.5464592 -0.54537141 2.1421149
4.5381975 -0.48711658 2.5523627
4.6091762 -0.45547971 2.1116245
4.6508851 -0.66721475 2.1437097
4.7101598 -0.40177056 2.1519613
4.6335225 -0.47117862 2.2415681
5.1686258 -0.5149523 3.4174185
5.0307698 -0.49796134 3.3880484
4.7296767 -0.77831024 2.1855917
5.1507974 -0.58208144 3.41888
5.0739713 -0.92579973 2.335639
5.3287549 -0.69449878 3.4507797
5.0848393 -0.89715385 2.5573208
4.8326821 -0.028468056 2.1623416
4.9840961 -0.89857864 2.1318545
4.9696789 -0.90175098 2.6045043
5.0763502 -0.2304766 2.1630666
5.0240831 -0.69041556 2.5609789
5.2167201 -0.70549905 3.4074173
4.8120985 -0.020339264 2.2064724
4.8539753 -0.44690338 2.2224276
3.3637047 -0.35911298 2.3598876
3.5448174 0.21047041 2.2140577
3.91659 -0.23857403 2.3331738
4.6597457 -0.32253394 2.0934033
4.0867324 0.20935504 3.2173531
4.0466161 -0.23878016 3.3695829
4.6970191 -0.23713474 2.3740265
4.7157464 -0.26531655 2.5168715
4.6751122 -0.60309368 2.1304979
4.6319733 -0.29927966 2.1494348
4.8461146 -0.2105663 2.0770984
4.5899448 -0.32054272 2.1601069
4.4768419 -0.51654541 2.5128808
4.6926432 -0.35358435 2.1335011
4.7930303 -0.13399076 2.4830818
4.7022295 -0.35778755 2.1481252
4.6963882 -0.43021032 2.0469723
4.6843023 -0.16943985 2.4687729
4.648809 -0.51037163 2.1009369
4.5802445 -0.50462896 2.5245125
