# .PCD v0.7 - Point Cloud Data file format
VERSION 0.7
FIELDS x y z
SIZE 4 4 4
TYPE F F F
COUNT 1 1 1
WIDTH 1518
HEIGHT 1
VIEWPOINT 0 0 0 1 0 0 0
POINTS 1518
DATA ascii
0.29527599 2.1868141 0.14375989
0.31860107 2.1927702 0.13228752
0.29060367 2.2111919 0.14547613
0.37293524 2.2630394 0.31771472
0.83626962 2.0951502 0.2445868
0.95757967 2.1142876 0.45774812
0.92670107 2.1660273 0.46859384
0.78544319 1.7190627 0.2394003
0.82295805 1.7737299 0.19751796
0.83792001 1.9940526 0.18192177
0.93830186 2.3044925 0.2224396
1.1892476 2.1380739 0.23127666
1.0426223 2.1188188 0.21404748
0.89425641 2.3959391 0.11879336
0.88931203 2.382082 0.19890496
0.99279726 2.4336553 0.18604642
1.3463371 2.3293307 0.17250878
1.135946 2.4498522 0.1676861
1.3160998 2.46542 0.18659307
1.124072 2.234813 0.15367852
0.81262213 1.8372442 0.21017262
0.82685477 1.8364853 0.19693534
0.30630648 2.1949534 0.1335118
0.93346339 2.1579263 0.45111665
0.91480047 2.1585882 0.40798059
0.93049049 2.1663411 0.42703381
0.97312427 2.1844606 0.36654556
0.96128088 1.8627743 0.20397167
0.94835663 1.8909595 0.3564963
1.0241303 1.9421062 0.40557379
0.94136912 2.4286366 0.21800402
1.0058498 2.4373872 0.14104719
1.0509942 2.4587951 0.16121872
1.1668134 2.2106268 0.23703595
0.93660408 2.2627058 0.19086325
1.1165004 2.2074423 0.23379989
0.9438864 2.3088739 0.226365
0.96025056 2.3062208 0.10519475
1.1306411 2.231307 0.23810692
0.89412916 2.3901255 0.11590621
0.91711926 2.4514005 0.166159
0.86814404 2.3662086 0.22883946
0.86608708 2.3480191 0.18057686
1.2339293 2.2999513 0.17921226
0.29647142 2.1560054 0.11381748
0.84141558 1.9990541 0.18657261
1.0521474 2.2302854 0.20782626
0.88520885 2.2019167 0.23132344
1.1839144 2.3165832 0.24296795
1.1655515 2.2156577 0.23817433
0.91744232 2.4300847 0.20622234
1.2537352 2.3763299 0.24985586
1.1370195 2.3837626 0.15942404
1.1613551 2.4881897 0.13532703
1.0063356 2.4851017 0.15141281
0.93548352 2.6953726 0.26954499
0.84905201 2.0845273 0.19911844
1.2078154 2.3094335 0.172453
1.1387128 2.2603498 0.22981079
0.88659197 2.3756132 0.1536781
1.1307498 2.2286258 0.22842655
1.2067844 2.2638211 0.23785417
1.059103 2.5573866 0.22841902
0.80217791 1.6828183 0.20998782
0.85671693 2.0040288 0.16058527
0.91791517 2.1044497 0.34115151
0.94357598 2.1261995 0.44495162
0.91652566 2.1414704 0.42959213
0.91503376 2.1452446 0.4174948
1.0346769 2.1558597 0.38960037
0.82266814 1.7741455 0.19723509
0.90384883 2.366483 0.13015686
0.90363711 2.358572 0.13027282
1.0070955 2.3631876 0.16952384
0.89021271 2.491955 0.24222924
1.0039071 2.4064088 0.14286481
0.94457072 2.2826486 0.13291383
0.80326802 1.7298439 0.24787241
0.80469126 1.8013819 0.21392749
0.79977936 1.7475635 0.21462399
0.28234392 2.1832085 0.14519264
0.8312887 1.9885743 0.2056248
0.89728373 2.4161859 0.14466916
0.98915762 2.4012644 0.16682807
0.87950099 2.4554803 0.26916692
0.86962795 2.4511321 0.23556243
0.89134139 2.7099555 0.25583032
0.80490798 1.8020998 0.21379316
0.99910057 2.1464641 0.37923247
0.91953456 2.1760099 0.37513816
0.96778995 2.2499812 0.37233964
0.89910221 2.2092614 0.30333093
1.1442372 2.1739764 0.19630758
0.92191726 2.1579318 0.34478521
1.050289 2.1097536 0.18912211
0.93964124 2.281446 0.21853851
0.95154542 2.264231 0.21935251
0.93675083 2.2500067 0.19086871
0.90516621 2.1653175 0.38989341
0.89805585 2.1379063 0.34589848
0.92241228 2.1734068 0.37157339
0.88266277 2.1825788 0.23562068
0.88893384 2.1583221 0.30511704
0.90487462 2.1942544 0.35557505
0.8833707 2.1562386 0.33883882
0.8675999 2.1619551 0.28627625
0.29066369 2.1723979 0.29494038
0.84776783 2.0018783 0.14943156
0.81797427 1.7708291 0.19655095
0.91403943 2.099365 0.33646733
1.092808 2.0990515 0.17670737
1.0742759 2.1301541 0.19107184
0.87647748 2.178133 0.22977823
1.1010042 2.1571901 0.2000325
0.9351595 2.1944475 0.37494707
0.93438065 2.2094982 0.22623681
0.89593071 2.2818189 0.23632699
0.90633368 2.2064373 0.1893993
1.0889661 2.1524119 0.22873829
0.94654566 2.2981443 0.22654061
1.0718598 2.2359781 0.22857696
1.0434781 2.1944942 0.22181262
0.87936944 2.3403993 0.12771532
0.89036816 2.332247 0.12575115
0.8624714 2.3293078 0.17099169
0.86165392 2.3178594 0.14406097
0.85035414 2.3290563 0.22060159
0.95499808 2.4509945 0.14497653
0.91189194 2.3144379 0.3352693
1.0457842 2.2114573 0.10234261
0.79330242 1.7987981 0.21094093
0.79423606 1.8459536 0.22169127
0.29697558 2.1297917 0.26759914
0.29600728 2.1414504 0.14434364
0.8160376 1.9854776 0.23780307
0.30499053 2.133641 0.13160729
0.91207898 2.2081623 0.34636432
0.91046953 2.1983016 0.33986577
0.91218829 2.211376 0.34964228
0.98256749 2.1158767 0.19555104
1.069885 2.1251633 0.19296248
0.9920423 2.1275413 0.19923802
1.0894591 2.1479616 0.19949368
0.89760292 2.1911469 0.32289383
0.92233735 2.1707416 0.3756597
0.92781538 2.1832669 0.35827306
0.92788559 2.2094362 0.18956472
1.0318807 2.0796521 0.18426181
0.8838889 2.1581321 0.33532399
0.88045144 2.1811249 0.32605687
1.0955302 2.1404314 0.23167317
0.93422401 2.212312 0.22877091
0.81711906 1.7705066 0.19518733
0.92888188 2.746011 0.26012611
0.29285616 2.2229812 0.13761747
1.1051044 2.1458473 0.18346174
1.0253692 2.1814544 0.20301792
0.89836216 2.1836917 0.29993057
0.88562983 2.1518524 0.29592547
0.90369511 2.2193499 0.23799762
0.92328912 2.2051806 0.22929893
1.1948012 2.2515159 0.16525403
1.2056477 2.2694914 0.16658971
1.0903714 2.2730346 0.11230265
0.89847988 2.3807588 0.33266914
0.97984177 2.399389 0.24058814
1.004554 2.4148729 0.1692875
0.99465692 2.4286163 0.15464504
0.8895213 2.5308974 0.24727792
0.91769385 2.552196 0.16744995
0.9215048 2.5652578 0.13614514
0.89350212 2.7256637 0.25524318
0.81786597 1.9234635 0.10743774
0.81485093 1.9565648 0.11081757
0.32841647 2.1333263 0.11002383
0.44582435 3.9728091 0.11092291
0.3467108 2.2570524 0.12069485
1.0231683 1.9953641 0.22867657
1.0857145 2.0803185 0.16858199
1.0853802 2.080677 0.1678198
0.88599437 2.1419752 0.23422529
1.1059985 2.1863072 0.23183686
0.91392422 2.3494008 0.23994142
0.89157009 2.4098966 0.13562366
0.9113698 2.4095285 0.33348006
1.1823633 2.2486637 0.16208036
0.91003609 2.4223921 0.46282437
1.2044363 2.2639458 0.16846696
0.90051937 2.5221632 0.27047384
0.80355227 1.9346434 0.148855
0.32023659 2.0810378 0.11275201
0.32745257 2.104027 0.12273683
0.86872369 2.1093245 0.23493944
0.86857808 2.1443386 0.32723597
0.85925651 2.1320369 0.3235113
0.86360496 2.1425791 0.32673773
0.85850292 2.1290097 0.22918685
0.85843533 2.1325262 0.22845612
0.99804783 2.2740479 0.22472975
0.92164558 2.1591415 0.15566023
0.9215253 2.2166445 0.22871594
0.95061284 2.2484124 0.1616157
0.84487665 2.2654207 0.21691461
0.99916643 2.831758 0.29940283
1.0076708 2.4571538 0.20256017
0.85706049 2.2298007 0.12144027
0.85518265 2.3246922 0.16593815
0.85013527 2.3220181 0.15165654
0.83831471 2.2954984 0.14662181
0.86188453 2.2889078 0.31621939
0.87684858 2.3358967 0.32906362
0.8107481 1.9093674 0.1569704
0.32047379 2.0907159 0.11747703
0.34873137 2.2874939 0.1383253
0.34812438 2.2807524 0.13740353
0.8705731 2.1130097 0.23469432
0.83352745 1.9691101 0.1553521
0.80198979 1.8998179 0.15543687
0.80379993 2.0170372 0.24824595
0.80336958 2.0168307 0.2437326
0.92970526 2.0215118 0.16172446
0.99342108 2.0429738 0.17128563
0.90580189 2.3913937 0.33664158
0.91107535 2.4096813 0.33915165
0.91099048 2.4042416 0.33868635
0.90215009 2.3524604 0.17913297
0.88897657 2.3642242 0.33087376
1.2005271 2.2668381 0.16293068
0.88824463 2.4878781 0.23857647
1.0176371 2.4579968 0.19013013
0.94829279 2.3750753 0.13716775
0.98106796 2.3701842 0.14090979
1.0526243 2.501879 0.20817654
0.90136087 2.1989937 0.22329386
0.887757 2.1822944 0.22240169
0.92918038 2.2012787 0.22445378
0.90499789 2.2140062 0.22677876
0.86027497 2.2991519 0.12120148
0.85883725 2.3042445 0.12176968
0.88342118 2.3240042 0.23145804
0.85887873 2.3207521 0.18295282
0.95568472 2.3311543 0.23695461
0.95291215 2.3338547 0.23915444
0.87967575 2.3887293 0.12717833
0.89743894 2.3779147 0.33418235
0.87490499 2.257699 0.14239736
0.90076095 2.5343792 0.2396002
0.92790997 2.1935766 0.22426683
0.92150301 2.2200851 0.18890649
0.86855108 2.3172295 0.12159124
0.87278956 2.3258512 0.22944914
0.84664625 2.3264475 0.22025266
0.88272828 2.3102212 0.22887768
0.90879208 2.3619237 0.1310039
0.80827981 1.8497934 0.19208261
0.78569758 1.8478125 0.21715347
0.79434472 1.8450741 0.21933711
0.96981514 2.0199187 0.16340296
0.78611189 1.8813868 0.14602649
0.7972331 1.8105929 0.21144538
0.87675244 2.2200189 0.23560433
0.92188627 2.1597564 0.15576509
0.87384951 2.2422228 0.23436613
0.90359783 2.5327978 0.11794592
0.89664668 2.5176725 0.11637151
0.86255193 2.6970704 0.25666657
0.87252361 2.7214551 0.26252946
1.0166774 2.9119613 0.24283701
0.89442962 2.6210439 0.18982746
0.905119 2.7865975 0.247133
0.35639346 3.7037828 0.24746677
0.41523129 3.6408305 0.14513132
0.351686 3.6598115 0.30109906
0.3385208 3.6452212 0.32658431
0.82236558 1.9207814 0.15853792
0.80773163 2.0211463 0.23620407
0.7937212 2.0311992 0.23983476
0.86090082 2.1009281 0.23042355
0.92400467 2.1518209 0.35033849
0.8492108 2.1290607 0.27859557
0.32841825 2.1117423 0.11937258
0.83703732 1.9738214 0.15703002
0.78974801 1.8857908 0.14452584
0.29908109 2.1257105 0.11423461
0.30391607 2.1262267 0.12797982
0.86657834 2.342319 0.19288348
0.85882515 2.2633226 0.22225909
0.88295937 2.3702419 0.18123427
0.88922918 2.3839734 0.17634359
0.87931687 2.3546495 0.14777951
0.88058943 2.3426712 0.32764784
0.88948166 2.4080091 0.14064158
0.88365602 2.3961775 0.15534781
0.89462578 2.3736246 0.33806476
0.95502979 2.3498371 0.23578526
0.99439383 2.4017067 0.13878617
0.80626881 2.0522158 0.10961442
1.0392804 2.4626687 0.21956603
0.44705272 3.7607701 0.16714527
0.44361061 3.959028 0.17812353
0.87010467 2.2376623 0.23232213
0.91371274 2.2100389 0.22911885
1.0163344 2.1833441 0.1489623
1.0126432 2.1791897 0.14780715
1.0232366 2.1911812 0.14832632
1.0189375 2.1884003 0.14849897
0.8830936 2.2672467 0.34687084
0.83710217 2.2498152 0.16365248
0.86569333 2.3237836 0.1284758
0.84331453 2.2978442 0.11191139
0.98402309 2.3706863 0.24037592
0.97963405 2.3643939 0.24010299
0.97085017 2.3562887 0.23557542
0.89509022 2.4157374 0.16010067
0.83988518 2.3976991 0.24214609
0.90083671 2.4311893 0.14141715
1.0161053 2.4117754 0.19487981
0.86951095 2.5199635 0.23380712
0.93909311 2.7755189 0.23946738
0.87533212 2.178941 0.23050106
0.89554727 2.1887915 0.22185189
0.91538441 2.267628 0.38548177
0.86714214 2.2829821 0.13890736
0.86429089 2.2710457 0.14700478
0.99073017 2.3303123 0.16959296
0.8118214 1.9112946 0.1580922
0.95955056 2.2581968 0.210776
0.97524625 2.3905859 0.23709828
1.0443977 2.3762608 0.16428898
1.0593866 2.4424963 0.21727657
0.46531856 3.6803098 0.113194
0.43488091 3.9182401 0.10717643
1.0543705 2.4752564 0.21593075
0.90601838 2.6619136 0.23637214
0.46296352 3.8840468 0.16886441
0.472994 3.9791942 0.17494389
1.143804 4.3380151 0.2351826
1.320401 4.5356889 0.23189858
1.2866244 4.5849237 0.49689397
1.3152373 4.6512775 0.52185678
1.292475 4.6760573 0.53177029
1.3020467 4.6109385 0.49996802
1.3140165 4.6437793 0.51097578
1.3027076 4.6211648 0.50793785
1.2998236 4.6047306 0.49818644
1.3024524 4.6836233 0.53917623
1.3040715 4.6847448 0.54069638
1.278712 4.6269231 0.55907291
1.2851468 4.6406178 0.56193757
1.2894156 4.6541409 0.56466389
1.2860824 4.6493769 0.56346816
1.288323 4.6627865 0.56814748
1.2962406 4.6854711 0.5758763
1.1041188 4.1584749 0.27157372
1.1209468 4.8196974 0.2028521
1.7315888 4.5077744 0.49664819
1.4192557 4.9895334 0.20755805
1.2429265 4.6668992 0.18646853
1.4232169 3.9988196 0.34790808
1.3906503 3.7994869 0.40318248
1.394333 3.9925299 0.21213734
1.3442965 3.8811469 0.27508265
1.3503412 3.9164734 0.14348526
0.84408987 2.1146073 0.27337655
0.86422235 2.1408513 0.29614359
0.86482334 2.1464901 0.29440075
0.86433202 2.1485627 0.23113549
0.91319549 2.1585519 0.19546025
0.89140594 2.4148693 0.14367203
0.89322424 2.4168065 0.16513567
0.87354445 2.4708235 0.20252419
0.87690121 2.5122013 0.26912251
0.88077623 2.5323443 0.26134977
0.90331596 2.5299544 0.14098631
0.8998614 2.542073 0.12770876
0.91353774 2.5566518 0.13117544
0.41590938 3.7621901 0.2713044
0.41165704 3.607594 0.30137461
0.38474283 3.6345923 0.1136713
0.38979322 3.5825791 0.10693772
0.34318376 6.9669003 0.7397272
0.84979779 2.2350395 0.17523026
0.85067326 2.2540345 0.17327456
0.86018932 2.2397542 0.16127861
0.94397575 2.4671154 0.14101741
0.37266558 3.7937691 0.29111442
0.42122838 3.7107108 0.26367784
0.24189512 6.9447966 0.40515575
0.4493883 3.5990953 0.2229412
0.48542482 3.7614255 0.1561998
0.38501281 3.5782669 0.16897911
0.38049522 3.6215191 0.17240047
0.84747583 2.2855473 0.21208307
0.82137358 2.2472291 0.1980606
0.83466727 2.231806 0.13204148
0.82465822 2.2504883 0.20285067
0.92337787 2.2129815 0.2282667
0.95102441 2.1846564 0.14875847
0.82865387 2.2639687 0.14989844
0.4321807 3.6458867 0.1740091
0.45986509 3.9997144 0.24503297
0.88949317 2.5260577 0.13583519
0.86156523 2.5620794 0.17646857
0.8896082 2.6123633 0.18779862
1.1969278 3.4985967 0.39082006
0.31833553 3.636214 0.21826711
0.28767863 3.6815205 0.64866203
0.30347598 3.5614095 0.16745944
0.79918265 2.313591 0.23650511
0.85656613 2.3301432 0.16862132
0.78441495 2.1993184 0.17350994
0.85938931 2.3141663 0.1904117
0.82299238 2.3615334 0.20794334
0.83424085 2.3835726 0.21658324
0.8569569 2.1294167 0.22821809
0.88265467 2.1105504 0.15290986
0.89654696 2.1272349 0.15580276
0.90081096 2.1346381 0.2072442
0.90025717 2.1379292 0.20944917
0.84208471 2.3996463 0.22407164
0.31937426 3.5795381 0.24593556
0.43571281 3.6133189 0.17090954
0.33909458 3.5304782 0.21273686
0.79773283 2.2445693 0.10060878
0.74425393 2.2254343 0.22522478
0.80119616 2.3140762 0.23858064
0.80199647 2.3139813 0.23718385
0.85698378 2.335902 0.12335666
0.88156539 2.3988008 0.13179323
0.31047723 3.5790727 0.20878831
0.33098617 3.7113531 0.33806896
0.31657723 3.6532867 0.14950743
0.32246995 3.655813 0.1551602
0.31732982 3.5914557 0.14060034
0.29558986 3.59147 0.62816364
0.33436605 3.6246037 0.1387895
0.30713376 3.7155201 0.30426675
0.31387705 3.591701 0.2457321
0.38293621 3.713943 0.11930616
0.39938986 3.7445087 0.23463598
0.89150661 2.4149826 0.13640246
0.88935685 2.4053392 0.15910527
0.88696015 2.4094107 0.13035549
0.89260381 2.4136071 0.16003314
0.8657766 2.4486971 0.19866094
1.0295948 2.3867879 0.23755825
1.0237535 2.3729453 0.2332513
0.88293475 2.4927826 0.20852508
1.1714332 3.1814322 0.38289598
0.8515082 2.3142087 0.18790686
0.86342436 2.2961829 0.31638491
0.85747015 2.3351848 0.11338225
0.86248767 2.3357708 0.11616871
0.85901427 2.333775 0.11310349
0.98211414 2.3678856 0.2389995
0.84259731 2.216691 0.11375259
0.9042812 2.1555932 0.10268405
0.82460672 2.2399321 0.20198193
0.8652069 2.3361335 0.15215679
0.82119238 2.3668187 0.24553511
0.83394372 2.4620128 0.24299492
0.91318142 2.5795374 0.13325277
0.89050591 2.5330317 0.1272033
1.2506326 3.369853 0.32174188
1.0243362 2.7572088 0.25689757
0.35071614 3.6495664 0.24129684
0.82596767 2.6202962 0.21317779
0.42249388 3.5528047 0.20785287
0.4619337 3.6564636 0.2574144
0.48287711 3.7545238 0.15734939
0.13985348 6.7328706 0.4187305
0.81718808 2.2454846 0.20939651
0.80539924 2.2480175 0.210978
0.80267793 2.1988935 0.1939138
0.80679548 2.2121558 0.18236087
0.81842399 2.2451484 0.20441329
0.82417321 2.2523899 0.19975266
0.81410676 2.270196 0.21336018
0.4159191 3.6224647 0.21708116
0.47127515 3.7355678 0.25778064
0.47316492 3.723382 0.25564614
0.77824801 2.2154338 0.10494526
0.77952355 2.2183309 0.10419951
0.77856702 2.2240024 0.10928507
0.82859647 2.3846886 0.10666816
0.83507609 2.3853567 0.12012024
0.9396643 2.5422125 0.24008733
0.38611576 3.6354201 0.29332048
0.48022336 3.74635 0.18927404
0.53661346 6.5924911 0.44083911
0.78476727 2.3138781 0.10120733
0.79579914 2.3191068 0.12179688
0.89254463 2.3348994 0.2414476
0.43498224 3.5518696 0.16769396
1.3969142 4.2092671 0.30843782
0.76225656 2.1441917 0.12974758
0.76230752 2.1540096 0.12656201
0.76217431 2.1519718 0.12619229
0.77959049 2.1735914 0.1315261
0.7703737 2.1733716 0.17061256
0.97285867 2.981271 0.29323292
0.27231303 3.4787791 0.15907446
0.25978377 3.5937495 0.13491489
0.4390884 3.6124747 0.22298495
0.44923571 3.5816677 0.2172188
0.29999235 3.5554142 0.19681148
0.12937278 6.7155652 0.15738571
0.33609736 3.5454586 0.11328994
0.36672878 3.5999587 0.24632494
0.8274312 2.4528079 0.23890287
1.4190327 3.6195998 0.48029619
0.44255212 3.5978024 0.12294853
0.79124892 2.1811852 0.16109297
0.80246872 2.2017071 0.2128236
0.75419253 2.1794784 0.20927909
0.75762099 2.1832373 0.20938665
0.75400954 2.1796813 0.20909068
0.75081062 2.1753383 0.20791458
0.78382099 2.1808608 0.13617991
0.78886908 2.2059851 0.17530963
0.79676419 2.1496699 0.18353629
0.7803266 2.1768682 0.12919135
0.79481602 2.2270904 0.20653461
0.8645342 2.4496655 0.14221942
0.801871 2.3388863 0.10532487
0.88522547 2.486748 0.11499686
0.90322191 2.5678506 0.10031641
0.73966807 2.3317029 0.10616207
0.24514374 3.4905233 0.19838299
0.259543 3.4768519 0.13355282
0.79940563 2.3359001 0.10391933
0.81281704 2.3491721 0.12425737
0.77193457 2.1632011 0.13285361
0.77295786 2.1641996 0.13063945
0.78462613 2.1783211 0.13819399
0.78630692 2.1841602 0.20843348
0.78018641 2.2149737 0.17393443
0.7804752 2.222218 0.10113937
0.75882429 2.2680047 0.20563349
0.77778935 2.2823112 0.17327242
0.78236079 2.2928882 0.14529268
0.78409421 2.3029544 0.15192299
0.78414565 2.3066363 0.15192235
0.78626084 2.310823 0.15227279
0.74896848 2.1120007 0.12232188
0.90120178 2.4620333 0.23148777
0.93295628 2.5256329 0.24108967
0.25064388 3.4626358 0.17610388
0.23560885 3.4458096 0.17051293
0.27342865 3.3392048 0.12353392
0.2589511 3.5535672 0.13501854
0.30098888 3.5616965 0.19676441
0.30026373 3.6335568 0.17097543
0.32554001 3.5627327 0.20056352
0.44283998 3.5534358 0.19298907
0.77998042 2.1360087 0.15628503
0.77768475 2.1459692 0.16336031
0.46509346 3.6635342 0.10937689
0.46421698 3.7059062 0.14999604
0.46612898 3.6005325 0.14401154
1.5313636 4.5535421 0.24844135
0.472325 3.6808608 0.11729034
0.44959512 3.5907936 0.16713727
0.79346663 2.2395861 0.17739916
0.76271474 2.2553561 0.233588
0.33723661 3.5903902 0.30643672
0.4004094 3.5646701 0.25403106
0.36251065 3.5510397 0.29183355
1.4744818 4.3758612 0.14641948
0.75559253 2.2408853 0.13303484
0.76655412 2.3537226 0.17099731
0.73443574 2.3176904 0.10958762
0.74477899 2.3320279 0.10811803
0.74960315 2.3554387 0.10682633
0.81252557 2.4945216 0.2408516
0.24377455 3.4069684 0.21471085
0.35616606 3.4904363 0.21112122
0.28675395 3.4434986 0.15380158
0.35075197 3.6613374 0.306546
0.25557005 3.45872 0.15993519
0.34255743 3.535569 0.11338943
1.0587656 2.9173262 0.17175722
0.9997319 2.8804588 0.34061706
1.0589085 2.8820717 0.32892892
0.22628729 3.4262509 0.5240438
0.22682491 3.4157872 0.53480536
0.2182336 3.4602709 0.21808481
0.96096021 2.5834506 0.15884045
0.2403903 3.3817351 0.19367126
0.2349568 3.4850819 0.1696651
0.23060061 3.4511361 0.17208819
0.23155716 3.4393439 0.19545236
0.22070862 3.4785008 0.21843193
0.75936174 2.1506956 0.1262773
0.72857356 2.2739613 0.11339859
0.72350407 2.3010201 0.10193932
0.22996584 3.4079854 0.22017144
0.23398384 3.4487009 0.17146957
0.33947232 3.4739776 0.1902089
0.34372678 3.5151265 0.11194096
0.38717267 3.4975083 0.16378945
0.41992691 3.5414617 0.26458746
0.74873894 2.1218045 0.12244185
0.80856824 2.4788771 0.23558283
0.26857078 3.4297588 0.12984872
0.28412312 3.4932902 0.15552816
0.78726441 2.3108678 0.11277355
0.76695532 2.2878976 0.14500387
0.78381443 2.3135157 0.10190885
0.74532712 2.2976983 0.16911471
0.77933985 2.3079665 0.10082417
0.76804757 2.2997506 0.10811384
0.7393803 2.2897899 0.12497394
0.74744326 2.3250821 0.18737271
0.73849279 2.2884946 0.11971339
0.7495389 2.3053708 0.11391005
0.74076217 2.3027201 0.11837672
1.4944199 4.4730735 0.34814268
1.5155911 4.3754487 0.45964035
1.5054542 4.4431148 0.16152453
1.5043967 4.3488216 0.44732821
1.3941538 4.4401159 0.16358425
1.5378672 4.4362612 0.4219667
1.3411947 4.3569217 0.11011391
1.2990123 4.9090867 0.15492615
0.92192066 2.666867 0.2025653
1.5420934 4.5794601 0.24421638
0.72728127 2.3087478 0.10260711
0.72665203 2.2780764 0.17333224
0.7409299 2.2908709 0.122095
0.74360222 2.3098783 0.18330719
0.72434777 2.2793245 0.17352797
0.73312199 2.2956769 0.17830466
0.74098825 2.3036094 0.18008107
0.7322675 2.2893572 0.1770231
0.74102098 2.2851436 0.11165328
0.77093452 2.2728136 0.17054236
0.77576095 2.287848 0.17641327
0.77477592 2.2795062 0.14555359
0.77602899 2.2931321 0.11186868
0.77035308 2.3027275 0.10954842
0.73863429 2.290818 0.169966
0.73867542 2.2911789 0.16949144
0.73461306 2.2833056 0.16720682
0.74237275 2.3015099 0.11741965
0.73001724 2.2753119 0.16566512
0.72619742 2.2712369 0.16330798
1.1954439 4.356369 0.18656555
1.3436465 4.2426372 0.13452113
1.4664508 4.4276524 0.23530252
0.75448328 2.2602656 0.17148583
0.75222063 2.2581418 0.17074111
0.97086412 2.7298586 0.16890267
0.96999073 2.7335904 0.16548964
0.97338796 2.7337282 0.1703409
0.98902816 2.7939246 0.11660295
1.0088432 2.7819052 0.27060789
1.1206436 3.0339732 0.38733432
0.99988914 2.878942 0.33872882
0.99934745 2.8801804 0.33915567
1.0605432 2.8721228 0.32162076
1.0666785 2.8850741 0.32743105
1.0654804 2.8908391 0.33252594
0.21346228 3.4181542 0.14872839
0.24841745 3.4541337 0.19361977
0.21437871 3.4114058 0.18556271
1.0494386 2.9293365 0.31565928
1.0423158 2.9082844 0.31180963
0.24965666 3.4258239 0.1952676
0.23364767 3.4178243 0.13889067
0.37676245 3.4932654 0.19746172
0.35154283 3.5613418 0.25887197
1.2514566 4.2958703 0.18649411
0.73290688 2.2716448 0.11016935
0.26537189 3.4963226 0.16022059
0.316524 3.5470314 0.20495135
0.31676927 3.5785072 0.17956364
0.36839727 3.5146201 0.24348432
0.33627546 3.4812844 0.14421016
1.3373392 4.1803389 0.26736063
1.5209974 4.4710083 0.20264626
1.3335339 4.2147503 0.15357336
1.6597542 4.7773194 0.19099557
0.24185927 3.3869975 0.13640895
0.22141023 3.449172 0.21730451
0.21229544 3.4043107 0.12886298
0.21760105 3.3933747 0.14119284
0.25913629 3.4503665 0.12872919
0.23345031 3.4195144 0.21486005
1.2592925 5.0750976 0.23038906
0.86695158 4.4816813 0.24315754
0.21375963 3.4008646 0.14829405
0.22938475 3.4518969 0.13966137
0.25722209 3.4134915 0.16678798
0.25133353 3.443125 0.17410041
0.29697382 3.6246049 0.20080285
0.30374238 3.5394957 0.1636337
1.2507875 4.2591205 0.27428791
1.0017816 2.866713 0.26545894
0.22366297 3.4380589 0.18158722
0.24943019 3.4229901 0.17530739
0.32665262 3.5338354 0.10485004
0.34544384 3.5405953 0.19999325
0.36305094 3.5707781 0.3161529
1.2411089 4.1661959 0.12308321
1.3487214 4.1195917 0.27828926
0.21688306 3.3962307 0.20254877
0.24114786 3.450598 0.21799515
1.5248467 4.4534397 0.16712771
1.1575483 4.5041976 0.15790835
1.21526 4.7752767 0.25303116
1.2054037 4.6416855 0.16261606
1.2738348 4.9794159 0.18601388
1.2010578 4.6989322 0.19379267
1.2255275 4.7922997 0.20009467
1.4235424 4.3329549 0.19460857
1.5322946 4.447391 0.14967716
1.1145843 4.3207817 0.17028289
1.2480388 4.8575706 0.26619956
0.27348685 3.4287486 0.12801038
0.23633711 3.4273856 0.2126198
0.96646643 2.7458072 0.11239291
0.95633185 2.6942744 0.17349537
0.21335343 3.3984556 0.22658244
0.33071437 3.5361528 0.14824241
0.32743293 3.584048 0.11423139
0.21444133 3.4200664 0.21059698
0.21373989 3.407891 0.14978257
0.2324242 3.4449015 0.16982871
0.32543442 3.52495 0.16745497
0.23935865 3.4086769 0.13388351
0.21542712 3.4000123 0.14243644
0.19973384 3.4447813 0.31230462
0.20849027 3.4053769 0.30849254
0.20520265 3.4364424 0.29440796
0.090769008 4.8847966 0.10691119
0.27890569 3.5334418 0.12855019
0.24098521 3.4804933 0.19975865
0.24103673 3.3546956 0.11879931
0.2109215 3.4120903 0.21033873
0.21488085 3.326663 0.34748909
1.2851118 4.3095722 0.22402479
1.2709578 4.0146103 0.17084977
1.4990957 4.4015994 0.19782275
1.3239893 4.7322817 0.2146194
1.209841 4.76227 0.25235602
1.2106502 4.2082548 0.36716044
1.2206683 4.23383 0.33995715
0.23419495 3.4474952 0.14245063
1.1816272 4.0000443 0.16583253
1.4272233 4.4096608 0.42378852
1.3052584 4.320838 0.19170098
1.284397 4.0741439 0.17518739
1.3786025 4.2606134 0.18550283
1.3719348 4.1794281 0.28822869
1.3097172 5.0989847 0.21247567
0.93882126 4.7991385 0.20433131
1.0057431 4.7121105 0.24680518
1.0560637 4.9280972 0.26558286
1.1581442 4.7878509 0.21223687
0.90882707 4.6376824 0.20598327
0.90960139 4.6551809 0.20410794
0.21132003 3.3912394 0.23150492
0.21787347 3.3678737 0.11261795
0.20816982 3.4148738 0.23162851
0.20836949 3.3988256 0.30840945
0.21642478 3.3942745 0.1048493
0.21023239 3.390955 0.30641752
0.21482177 3.3839707 0.17896874
0.21275923 3.4064686 0.20811549
0.24134274 3.4241328 0.18697029
1.3155464 4.1321621 0.26014227
1.3646014 4.739573 0.21807288
1.3842074 4.1650896 0.22391331
1.4764279 4.3506002 0.23009227
1.2171656 4.1634798 0.17662379
1.3111488 4.3441386 0.10887443
1.2383075 4.3680105 0.19093271
1.0666461 2.923636 0.19032679
1.3215311 4.9019465 0.1828526
1.302217 4.7991743 0.20050654
0.93023336 4.9341893 0.20850712
1.3439074 4.1669555 0.21123554
1.6184553 4.6828728 0.16858952
0.22006354 3.3579314 0.17556505
0.24257003 3.3630116 0.27819815
0.20982544 3.4084909 0.2872228
0.21288905 3.4083533 0.1274437
0.19772451 3.4695835 0.24702905
0.24176511 3.509748 0.16152167
0.23687012 3.4078836 0.18982062
0.94010937 4.8488712 0.2702831
0.91974854 4.7748632 0.24501453
1.0786572 4.5156374 0.19510914
1.0608643 4.9261079 0.26761323
0.12602597 7.049365 0.31609285
1.0536492 4.8848901 0.27014959
0.99428612 4.7328115 0.25124228
1.2546781 4.1496162 0.11530367
1.3696231 4.1810188 0.21620612
1.0010334 4.6231503 0.25171641
1.6539966 4.6444259 0.16680662
1.6976686 4.7395897 0.17089811
1.1033359 5.1365833 0.22406401
1.0168124 4.6349473 0.50047249
0.96144491 4.4988284 0.23081113
1.1323589 5.0821261 0.56382447
0.2067055 3.4113626 0.13662265
0.21247731 3.4313323 0.1467938
0.21554556 3.4041505 0.14415792
0.24176551 3.4306526 0.18673189
0.0657074 4.9033136 0.21511982
0.24505092 3.4138224 0.21077019
0.24634501 3.3648012 0.27435684
0.98375785 4.5419078 0.47380099
0.09086062 6.9010401 0.14850064
0.91967767 5.1206617 0.26245618
0.24893363 3.3387635 0.18369126
0.23578875 3.3204427 0.20495576
0.23776013 3.3282151 0.19563505
0.23002371 3.3306296 0.14341322
0.24853373 3.4408655 0.19786784
0.22384761 3.4162829 0.23249805
0.26715079 3.4520962 0.19674785
0.25204685 3.4651909 0.18777975
0.22252645 3.3509243 0.22209471
0.22092919 3.3477774 0.1797664
0.21012639 3.3986397 0.18357113
0.22246596 3.3626287 0.14623658
0.21309878 3.4056268 0.12557863
0.20786586 3.4083631 0.10903759
0.26152587 3.3967261 0.12589718
1.3542448 4.4604669 0.18000294
1.3708407 4.0937762 0.30461541
0.91546744 4.7884159 0.24163386
0.21593989 5.4390855 0.27821472
0.91749376 4.9291401 0.28947774
1.1134828 4.8420343 0.19618654
1.3835297 5.0561872 0.18089163
1.080856 4.9688025 0.34941047
1.0964406 5.0544505 0.3543897
1.0970732 4.9589272 0.51636499
0.88136256 4.9282866 0.25008422
1.0751168 5.0144558 0.21741186
1.1238263 4.9879351 0.52446777
1.1691135 5.2425404 0.58923888
0.24441843 3.3583431 0.11764285
0.20970966 3.4129267 0.3086555
1.1981387 4.2433915 0.36929938
1.1861799 4.148488 0.3363331
1.2407078 4.3076434 0.36223769
0.24931511 3.5165617 0.14503025
0.22878839 3.3477511 0.27198505
0.25295857 3.4099228 0.19258866
0.21106099 3.3833227 0.1339588
1.2006307 4.4930911 0.23452462
0.25027958 3.339443 0.18453753
0.071820267 7.1244063 0.31864733
0.24121685 3.3330531 0.35874504
1.38588 4.2098584 0.17588662
1.4344978 4.2922869 0.29815516
1.5394601 4.5495157 0.20791925
1.4456414 4.3344827 0.19626094
0.24953113 3.3464835 0.20001753
0.23520204 3.4263859 0.2772232
0.22299047 3.2201049 0.18456593
0.21862999 3.313472 0.20950857
0.22778387 3.3412416 0.19798096
0.23137692 3.3381045 0.1932397
0.22133414 3.3180971 0.17586648
0.2584492 3.4111414 0.19125439
0.24356899 3.5042155 0.13620882
1.399452 4.2340717 0.18061695
1.325206 4.2932367 0.48444092
0.10772799 4.8243546 0.20652726
0.21832703 3.3238709 0.21113335
0.98773545 4.8460302 0.20770854
1.1302181 5.0240698 0.38262826
1.0996492 5.2437272 0.43651125
1.265637 5.5256877 0.69496423
1.0002706 4.8830462 0.36882791
1.0750537 5.307497 0.43521598
1.6287893 4.5909076 0.17225607
0.98913819 4.8737855 0.20344605
1.0155389 4.9809875 0.30204338
0.97287297 4.3615813 0.32318935
1.0275528 4.606565 0.41360927
1.0399172 4.7385578 0.19965993
1.0870727 5.0473385 0.22136156
0.89525056 4.977282 0.26095885
1.0789833 5.1513705 0.4958851
1.0189295 4.8387666 0.3935234
1.1117829 5.261241 0.44067928
0.2206905 5.3044081 0.30365035
1.1985797 4.2931428 0.18196076
1.4491929 4.2797213 0.36121655
1.3022007 4.0702238 0.16511303
0.22515586 3.2500732 0.17114751
0.23237389 3.4646559 0.13836822
0.24028842 3.5085852 0.16191964
0.22146937 3.2263579 0.12260374
0.2141065 3.3235519 0.24832712
0.22005881 3.2896838 0.24955091
0.22013265 3.3060358 0.20974666
1.1687068 4.0400462 0.21624786
0.21898448 3.3058455 0.2509433
0.25085914 3.4933293 0.18626247
0.25925171 3.4579792 0.17880908
0.26637357 3.5266163 0.20008104
0.24758415 3.3447614 0.27449399
0.21244502 3.3825705 0.18113337
0.26982373 3.5219519 0.15321666
0.27572316 3.6724894 0.16004339
0.29628679 3.5864863 0.14973333
0.2728869 3.4589541 0.16243623
0.2764034 3.4813204 0.14405687
0.28588358 3.5760977 0.15165761
0.2091722 3.390202 0.18728888
0.92128128 4.7238579 0.20058571
0.96247584 5.1275091 0.2156115
0.97214359 4.4921165 0.24555363
0.91960287 4.3856144 0.22829197
0.96635664 4.5924048 0.24411967
1.3262651 4.1219759 0.21062382
1.6959572 4.8648009 0.22275993
1.211537 4.5625191 0.24027999
1.1210401 4.4322486 0.15563835
0.23069768 3.3376751 0.1951538
1.6297954 4.5988946 0.20316902
1.0880414 4.8529539 0.55524004
1.1634989 5.2066398 0.62941271
1.1508092 4.5098262 0.15693592
1.3707035 4.9398098 0.2171191
1.6588471 4.6487465 0.16003796
1.1613512 4.0880475 0.32063815
1.2204838 4.1951132 0.28594753
1.2802395 4.0392461 0.24993059
1.4259855 4.7617698 0.26150191
1.2190384 4.3239298 0.22606476
1.4511317 4.2680135 0.36202121
1.4223075 4.1730638 0.31960279
1.4469178 4.3916316 0.18555322
1.1572769 4.5865021 0.23691957
0.127579 4.9706221 0.25688601
1.0620852 4.5678458 0.20169351
0.2439983 3.4734406 0.19637218
0.24388185 3.5093336 0.13109806
0.24916078 3.4919894 0.12975454
0.25679892 3.4996707 0.2013849
0.22722906 3.3354533 0.2698276
0.22510082 3.4812777 0.22606121
0.25816557 3.5281565 0.16963275
0.26435155 3.5387647 0.18461721
0.24276519 3.3451295 0.18390769
0.2260759 3.4833348 0.20069504
1.0396905 4.4528975 0.20517355
0.21913883 3.2808092 0.24102992
0.14313971 4.9463191 0.25279334
1.6025369 4.5355577 0.15919335
0.22391908 3.356241 0.11965083
0.25108856 3.374706 0.19203961
1.1527151 4.0858002 0.15513611
1.2155371 4.1939268 0.15468937
1.4261218 4.333086 0.2287018
1.2941706 4.1101751 0.13295789
1.184086 3.9652019 0.29188436
1.2735193 4.1263189 0.13268706
1.0641429 4.570241 0.20596854
1.035863 4.6279454 0.18265866
1.0504386 5.0111437 0.41412893
1.0578502 5.0301275 0.42559019
1.0215915 5.0543804 0.39699054
1.045202 4.8509259 0.20121251
1.0683682 5.2716331 0.66411006
1.1913524 4.9600415 0.13154744
1.1131961 5.0346546 0.43926844
1.084078 4.8681874 0.17856796
0.063473195 4.8436666 0.37529057
1.1091094 5.1076622 0.18601781
1.1479493 5.2400236 0.16020702
0.89599329 4.6262417 0.25782275
0.89224851 4.7517605 0.19325936
0.96142584 4.897923 0.32219872
0.067137405 4.8268266 0.32987559
0.064798899 4.8107214 0.33218047
-0.0031962586 5.1063089 0.41445556
1.0031803 5.0219727 0.39259809
1.0347297 4.7410951 0.40260941
1.1549278 4.1889806 0.17574646
1.3297672 4.154604 0.14185776
1.1046475 4.3170509 0.22106895
1.0848057 4.381526 0.2206402
0.13807634 4.435421 0.19654888
1.1518219 4.2998438 0.23673147
0.092849776 4.8897643 0.213027
1.0547413 4.2963462 0.15027612
0.11583486 4.7725768 0.25455484
0.22557972 3.4119794 0.19675924
0.23553066 3.4167721 0.18754821
0.22025916 3.3602607 0.1686977
1.1900429 3.9697943 0.24724744
1.1900618 4.0077705 0.11884641
1.3138713 4.3844199 0.18684143
1.0765836 4.3730168 0.15738072
1.3821629 5.2718482 0.2071825
1.2809056 4.6886525 0.20236209
0.11896517 4.5026784 0.23469368
1.0347761 4.3309073 0.24008079
0.041666895 4.3576255 0.22660509
0.86915165 4.5544887 0.1014919
0.90777224 4.7117867 0.12598774
-0.0058596074 4.5003953 0.24260937
1.0397841 4.5421987 0.2066797
1.1056339 4.7966137 0.21562986
1.2026029 4.17383 0.17362668
1.1600716 3.9942017 0.16342255
1.2412505 4.0801973 0.14327444
0.23064129 3.3373208 0.13873436
1.5028914 4.5775509 0.56022626
1.0008521 4.8478813 0.36119685
0.93645066 4.790441 0.20509121
1.0243925 5.1529441 0.34550345
0.24344075 3.3325477 0.35858506
1.1439571 3.9736879 0.42672026
0.23192485 3.4974926 0.27987206
0.24312538 3.5061133 0.1976358
0.24947408 3.4939203 0.12941878
0.25065112 3.5283844 0.17062616
0.24224216 3.3866534 0.20419553
0.22622658 3.2363641 0.12233139
0.22510506 3.2411661 0.1246675
0.23754337 3.3243809 0.26015019
0.88449264 4.5486131 0.26025763
0.16149816 4.5574918 0.22984961
0.88905501 4.7501101 0.19981064
0.23532093 3.4225144 0.18972954
1.0110233 4.87468 0.20702922
0.21542844 3.2996218 0.12935582
0.21629454 3.3022163 0.12980971
0.21819626 3.2968442 0.19236413
0.21810152 3.3013415 0.19206694
0.219304 3.2964983 0.18148927
0.94662166 5.0647836 0.35970831
1.3455324 4.2455068 0.39562786
1.3866426 4.1756606 0.38069957
1.3646752 4.1301923 0.37046492
1.2271129 4.0473714 0.11866111
0.23175858 3.3800857 0.20684333
0.23487347 3.4100981 0.18725573
0.23122531 3.4608104 0.12107898
0.23806967 3.4477749 0.14127719
0.23553741 3.4772155 0.27730843
0.22076996 3.2221475 0.1680925
1.0244853 4.5636768 0.55032593
1.0099012 4.725173 0.46826836
1.0048347 4.7086082 0.40539339
1.0289284 4.7466788 0.52371681
-0.21571778 5.0349908 0.19378318
-0.043241452 4.8387704 0.40089306
-0.055888925 4.866652 0.40894186
0.0081787948 4.6128569 0.38206661
0.098812461 4.6564941 0.34398577
-0.20602971 4.9983253 0.19047207
-0.09518607 4.8469634 0.46600625
1.1444162 5.1035943 0.16764221
0.22154915 3.2218654 0.18281461
0.23373073 3.439471 0.19191492
0.22608738 3.4762988 0.22256562
0.2318037 3.4741054 0.20848522
0.24295558 3.5163674 0.15590382
1.1436601 3.9625206 0.42222556
0.90923673 4.1904759 0.23664933
0.078713953 4.4237909 0.18604337
0.99576253 4.2839227 0.24228631
1.0278562 4.7305694 0.14932352
1.081934 4.9620805 0.14404029
0.22569567 3.2331388 0.19037724
0.86928946 4.8891277 0.24111699
0.85335374 4.4765997 0.11057879
1.0895352 5.1144829 0.45489535
0.99506325 4.8324432 0.37075633
-0.010507388 4.9974222 0.37171236
0.012002869 4.9034333 0.38925174
1.1370797 4.0409884 0.32290277
1.2397975 4.3389301 0.22725438
1.2232507 4.0364161 0.16689366
0.22338402 3.3600168 0.1694503
0.22496715 3.3542047 0.14531213
0.97860169 4.4874325 0.25346678
0.92025727 4.7108622 0.2715289
1.0185367 4.7466059 0.20097499
0.98955548 4.8139119 0.30228832
0.98849159 4.9626899 0.33739886
0.98265916 4.9618416 0.33801138
1.0423778 5.0812583 0.63166428
1.1737939 4.866375 0.12432156
1.0824533 5.0383987 0.10055645
0.98333168 5.2458558 0.3681477
0.22436057 3.3678505 0.14214051
0.22916806 3.4015009 0.19630465
0.22019421 3.4337497 0.20070392
0.22697155 3.43185 0.12099276
0.23202093 3.4305944 0.20201553
0.23451522 3.427016 0.2117867
1.1277864 4.0367026 0.33098307
1.1655664 3.9871023 0.15477973
1.2089825 4.0391679 0.16793345
1.232945 4.6782141 0.17813961
0.15847649 4.1817102 0.23451902
1.3241935 4.7630529 0.21737272
0.1173822 4.5121322 0.2440674
0.22709544 3.4760807 0.19597352
0.23786192 3.4174709 0.20793995
0.24207182 3.4188695 0.20516266
0.23895967 3.4658656 0.27636394
1.1995089 4.2680039 0.26094496
1.2132249 4.1711774 0.27007148
0.81276011 4.1822548 0.24690834
0.84027112 4.3085942 0.25276557
0.86841589 4.3100853 0.25154588
0.83222544 4.3134027 0.26267451
0.21424572 3.3125498 0.13015474
0.22572088 3.2697699 0.17930838
0.22488667 3.2838411 0.24276012
-0.18564013 5.1397705 0.51961261
-0.11676785 4.8185549 0.4259395
1.1019853 4.932405 0.21554503
1.0701319 4.671546 0.20546819
1.0394084 4.6853509 0.50260544
1.0855906 4.8154759 0.21468315
1.0929071 5.0149717 0.4854461
1.0410107 4.7720718 0.53037828
0.10072624 4.7540293 0.20967515
0.062819779 4.765965 0.35690129
-0.051021915 4.8574858 0.4046573
0.91058719 4.1772332 0.23639011
0.85965061 4.2774801 0.24400309
0.85616237 4.3204184 0.11636113
0.86377084 4.359632 0.1124149
0.85534173 4.3369894 0.11001559
0.85908884 4.3500113 0.14566749
0.86024266 4.3472037 0.14606671
0.99842703 4.8819337 0.19261755
0.87119985 4.3630362 0.16099635
0.86682707 4.3533845 0.16459411
1.371092 4.8708558 0.22944801
0.8766408 4.3646107 0.1711224
0.84749895 4.4656177 0.22212446
0.90263283 4.8746309 0.29570049
1.0554318 4.6659088 0.5949176
1.058735 4.6727719 0.59700888
1.0961015 5.0042529 0.43732348
0.20520306 3.239959 0.12332451
0.2202311 3.2253952 0.16829246
1.2790201 4.6842694 0.20880949
1.165195 4.3535056 0.18508264
0.90805852 4.8147159 0.28157908
0.85770684 4.4416537 0.23965707
0.84049487 4.4784312 0.25362593
0.064049721 4.7655797 0.35091051
1.0837781 4.9230294 0.43043831
1.0581853 4.7969818 0.41735592
0.97214472 4.908658 0.38177365
1.0637293 5.1145473 0.20909695
1.1165642 4.9998021 0.18134567
1.0251644 4.6891928 0.15215275
1.1005597 4.3237495 0.22407883
1.0595385 4.2134237 0.20979333
1.1360589 4.1474414 0.24833091
0.10966198 4.3438201 0.25785398
1.1652678 4.2238588 0.25760487
0.91170454 4.2213984 0.22855261
0.078110874 4.378583 0.19531372
1.2486445 4.2383952 0.18133484
1.1319724 4.0986285 0.17026278
0.23786899 3.510745 0.18913296
0.24098012 3.5082672 0.18553263
0.22041014 3.3929851 0.14117622
0.22298598 3.3747911 0.19216608
0.21930531 3.4252112 0.19507875
0.22532186 3.4377649 0.20194681
0.22556974 3.4313269 0.19327545
0.22636591 3.431025 0.19317985
0.22807972 3.4540575 0.19081083
0.22439514 3.238399 0.12181699
0.22265559 3.2498901 0.21381773
0.9544816 4.3533301 0.25579411
0.91126573 4.3604474 0.2307422
0.93043917 4.4358845 0.23496775
0.94602257 4.8137984 0.21685559
1.0209577 4.571456 0.18280573
1.0282189 4.7992287 0.47951382
1.02888 4.9140968 0.41312078
0.066792354 5.0056586 0.10013284
0.070351861 4.7796946 0.3310312
1.0295664 4.6255317 0.40217179
1.0397208 4.6599021 0.43347508
1.21864 5.3869481 0.50667489
1.0650231 4.8678932 0.15820743
1.2600881 4.9411826 0.19020456
1.0319623 4.9805031 0.17611381
1.0870799 4.7966952 0.4555808
0.21509008 3.3475108 0.23927215
0.21786135 3.3430088 0.24375971
0.21854128 3.3388917 0.24270359
0.22571366 3.3471227 0.11642239
0.22010197 3.3674879 0.1028405
0.21982019 3.3887806 0.14623469
0.21307835 3.303987 0.14993189
0.21413915 3.295471 0.12753557
1.3864046 6.6158748 0.96841145
1.1885283 4.7851682 0.14918844
0.21557583 3.3112276 0.19192825
0.21611324 3.3628232 0.19599019
0.21865165 3.3762558 0.1151207
0.21962391 3.221175 0.11944837
0.21861951 3.2301495 0.14382893
0.2157055 3.3104696 0.19222122
0.2162783 3.3019056 0.12990516
0.21838985 3.2961962 0.24101758
1.1849629 4.2077942 0.17884316
0.09276998 4.2692032 0.24694829
0.087253794 4.2886271 0.24630953
1.0424353 4.2035313 0.14837584
1.0330354 4.754766 0.52223122
1.0160755 4.6909671 0.52084887
1.0325495 4.7363791 0.52548033
1.0301529 4.7298775 0.48070168
1.0445634 4.787262 0.53397506
0.95006996 4.6605177 0.19188879
-0.043368276 4.9479117 0.37915257
-0.038543534 4.9360785 0.3780041
-0.07919167 4.9918284 0.45647198
-0.062223833 4.8897929 0.42749494
-0.062970445 4.9370151 0.45037585
1.0758399 4.8291535 0.43150723
0.068484128 4.731771 0.35330552
0.09808889 4.2978625 0.18683514
1.0294501 4.7162409 0.19688198
1.0230889 4.7289462 0.52726179
0.96122855 4.5015731 0.36464992
-0.13494194 5.3473344 0.44643614
-0.036938958 4.9183407 0.37565243
0.99604785 4.5442252 0.40767533
1.1069076 4.9629426 0.45628223
0.21501228 3.2616448 0.10084744
0.21457084 3.3094087 0.21452072
0.21726058 3.3023167 0.19027948
1.0421996 4.8305273 0.49532714
1.0798074 4.8899112 0.57061005
-0.041168164 5.1163006 0.42318684
-0.092049077 4.8347917 0.40560982
0.052864064 4.8630581 0.37765038
-0.097727053 4.9071555 0.41598091
1.1253511 5.0112691 0.18472372
1.0763892 4.7958813 0.42657709
1.1283191 5.0179434 0.1795691
1.18665 4.9866176 0.17230825
1.2992405 5.0195823 0.19247462
1.2775031 5.0225868 0.18251546
0.09931656 4.3792605 0.26094288
0.075641334 4.578547 0.261691
1.2176957 4.1955705 0.30589813
0.020817591 4.4143562 0.23526175
0.014326145 4.4339094 0.23655711
1.0202034 4.2929058 0.23753543
1.1257012 3.9510627 0.27501857
1.1433034 3.9752476 0.21175046
1.1391966 3.9581745 0.16379949
1.1255623 4.0370221 0.16618319
0.075590886 4.297998 0.24929723
0.12186855 4.2314215 0.24612427
0.86475652 4.6843457 0.27095878
0.096102782 4.3308988 0.18440242
0.9030866 4.1594992 0.22859697
1.0955334 4.2647715 0.17483148
0.13488083 4.3095818 0.24869874
-0.00804519 4.9267726 0.40316528
0.042963512 4.4700952 0.32477388
-0.16541423 5.1375055 0.4899677
-0.095014125 4.7377501 0.43104362
1.2462529 5.0155563 0.4988417
1.3300687 5.1019268 0.20135786
-0.063013166 4.7572713 0.44099334
0.9204995 4.5685668 0.19536635
0.091097571 4.3277755 0.10775167
0.86065269 4.6469998 0.27447954
0.88035387 4.7464318 0.27791506
0.03961435 4.3495274 0.22695576
-0.0020472221 4.4907489 0.23556803
0.86828572 4.5529647 0.23315099
0.94364357 4.8644099 0.21435554
0.16046359 4.2928824 0.26030552
1.1742941 4.0913062 0.16023751
1.1440474 4.0874128 0.16029058
1.164161 4.1044607 0.21020493
1.1050767 4.2930059 0.22896023
1.2100728 4.1693645 0.30814278
0.17615552 4.4550028 0.24959445
0.22517873 5.3122416 0.24874005
1.1182482 4.9850812 0.17884114
1.0316982 5.1377926 0.42200118
-0.38250044 5.4816275 0.13430774
0.91913921 4.1839399 0.24238741
0.16819726 4.4095907 0.25721076
0.1382598 4.5184445 0.28152704
0.17389336 4.3732972 0.25150123
1.0550311 4.2945127 0.23784433
1.1623287 4.4130363 0.24120124
0.85077316 4.3195248 0.14096823
0.85106289 4.2879095 0.15704013
0.84598798 4.3039575 0.14430834
0.97979301 4.3095126 0.2420702
0.17146073 4.84407 0.22789557
0.85560215 4.8340507 0.2228653
0.055829372 4.8714147 0.23627034
0.051619787 4.8895011 0.2387965
1.1265459 4.7272573 0.39750716
0.021406751 4.9991498 0.23733565
0.92070794 4.7577739 0.20149195
1.1465222 4.9755054 0.17432322
1.0091875 4.814127 0.37203285
1.0767094 4.7887244 0.16783164
1.175958 5.0071273 0.22211634
1.2245274 4.9792671 0.17592293
1.0495741 4.9989462 0.42018455
1.1902654 5.0581288 0.22634062
1.431264 4.9508486 0.20472276
1.3813581 5.043314 0.19409744
1.3637275 4.9872227 0.20396368
-0.035318468 5.2827325 0.12106053
-0.03909862 5.2668948 0.12085975
1.2127695 4.9112415 0.20833848
1.206274 4.8948946 0.20844658
0.8178156 4.3137665 0.24303627
1.1993868 4.1244717 0.15556684
0.11807279 4.1688886 0.26914665
0.93641168 4.2449756 0.18285646
1.0298953 4.7512054 0.39703923
1.0829073 4.8773742 0.21105534
1.0982703 4.9316773 0.21421154
0.90696007 4.5026579 0.1878572
1.1352043 4.8524027 0.20104858
-0.1136843 4.8769112 0.41248706
1.0844949 4.8375149 0.43378675
0.0022208393 4.899457 0.39576101
-0.053261708 4.8455005 0.40949929
0.87543374 4.4302702 0.27641523
0.84215456 4.3651042 0.17709027
0.91369694 4.3552871 0.22688915
0.89110059 4.7065034 0.27435818
0.84721291 4.5044327 0.2517339
1.2817429 4.7589307 0.2150477
1.0834508 4.129077 0.14866261
0.15848936 4.3361216 0.25792423
-0.1191929 4.8118286 0.44835031
0.11186877 4.8223777 0.21212485
1.0294646 4.8087087 0.48199785
-0.028387317 5.2252579 0.26450455
1.0340416 4.7658544 0.52042317
-0.036900911 4.7342062 0.41388634
-0.066487506 4.6942143 0.40893856
-0.047169577 4.7117076 0.42064536
-0.16925432 4.948596 0.50109214
-0.13623928 4.8648882 0.49116597
0.90380925 4.8205433 0.19473106
0.015737586 5.0132294 0.24085599
0.13649958 4.1771226 0.16027664
0.10998899 4.2550368 0.16953588
0.85782319 4.3463383 0.11101848
0.86936313 4.3695621 0.15713671
0.85271198 4.333889 0.15495083
1.2046791 4.0971484 0.29001704
1.1646986 4.9718986 0.19147253
1.0386969 5.0016813 0.41798866
1.0683661 4.8128037 0.15907614
1.4165145 5.0477695 0.22751296
0.054984383 4.8969345 0.22320731
1.0533872 4.9682164 0.43790054
0.0096292533 5.0725498 0.11034902
0.96582925 4.8666391 0.35948718
1.1181542 4.8685865 0.17943777
1.2368877 4.9537873 0.17707577
1.1128193 4.8276219 0.20977259
1.4583988 4.9602098 0.22326574
1.2379429 4.9164801 0.19361514
0.14980543 4.1834278 0.25390905
1.1034939 4.1822944 0.19240716
1.0162065 4.4789939 0.21764614
0.82480544 4.2494273 0.13433501
0.82518148 4.2554159 0.13379879
0.83132201 4.2695451 0.13273452
0.81936616 4.2461619 0.23576038
0.82188624 4.2542391 0.15607503
0.81711954 4.2592793 0.22885862
0.8197698 4.3114009 0.23347284
0.79655087 4.0896549 0.25083202
0.1296239 4.2573476 0.26633927
1.0617036 4.052475 0.13534082
0.14272667 4.2306933 0.25775179
0.16788493 4.2922702 0.25412109
0.9884361 4.202692 0.2405984
0.16099147 4.4656434 0.25940597
0.99339074 4.4223204 0.19857244
1.0149944 4.4932795 0.39548966
1.0201421 4.5689306 0.4366836
0.82081622 4.1525254 0.26794413
0.10316598 4.6185827 0.30996698
0.065172292 4.6673818 0.32100943
-0.0032129467 4.7422976 0.36252609
0.020588785 4.7953048 0.4523142
0.028870869 4.8039618 0.44828048
-0.0065984176 4.6789865 0.36133209
0.9105708 4.8718243 0.33745557
-0.019705718 4.8219194 0.22864857
0.90409327 4.838439 0.3372983
0.96666259 4.8530478 0.19625127
0.12688015 4.9146247 0.23987712
0.97615904 4.8742561 0.15380873
1.2604637 4.9373298 0.18651073
1.0042963 4.9973388 0.15169449
-0.00077379943 4.7530727 0.4199537
-0.060232732 4.7044396 0.42490658
0.0068696653 4.7334042 0.40168038
0.0048594163 4.6390467 0.35008138
0.11516971 4.5870361 0.29915008
0.072973706 4.6621766 0.3381196
0.96069747 4.86026 0.16811728
0.14666228 4.1871753 0.25495467
1.0226928 4.628983 0.49645463
1.037879 4.5896549 0.40946788
1.0167174 4.5683465 0.47170368
1.0432614 4.6354327 0.48936385
1.0264156 4.5987825 0.46274549
1.0175205 4.6229935 0.49361211
1.0050582 4.6133432 0.38238662
1.0292885 4.6652083 0.40363368
1.0013623 4.6120682 0.39010659
0.12692621 4.680532 0.20043674
1.0026811 4.6277804 0.40902305
0.99119538 4.6153755 0.44973668
1.1922047 4.1118026 0.15317389
1.0797207 4.1125536 0.15310377
0.83808064 4.3122196 0.20393388
0.83827454 4.4755101 0.25159368
0.86479259 4.6150575 0.27061287
1.1764348 4.4991989 0.22398144
1.0559514 4.6157813 0.56968158
1.0355198 4.618073 0.54885703
1.0176545 4.5673614 0.44396141
1.0271796 4.6587715 0.47197816
1.066871 4.7897892 0.42022711
0.043420732 4.7758937 0.36943355
1.0222434 4.7049932 0.42080158
0.88199878 4.7237663 0.18705562
0.86790746 4.8532372 0.2469912
-0.077890523 4.8185048 0.55356914
-0.11193246 4.9144526 0.58593905
1.0390718 4.8612862 0.39447659
-0.12015893 4.9388852 0.58966833
0.032516308 4.9622254 0.23037063
0.87301737 4.4822273 0.19815899
-0.041530941 4.5963597 0.10554734
0.13038059 4.8980012 0.23733729
1.0492749 4.6426425 0.41542616
1.0188332 4.6068234 0.39129907
1.0181795 4.6285706 0.3912293
0.059105709 4.7773838 0.35814577
1.0487702 4.8903837 0.44640896
1.0321523 4.7696314 0.39421436
-0.06215705 4.7864337 0.42842481
0.16399468 4.0792365 0.26092434
0.82819158 4.2993717 0.17700849
0.1584097 4.6234503 0.19116361
1.0449457 4.6107798 0.21209745
0.13367736 4.1903605 0.26129836
1.1074373 4.0827003 0.14671348
0.16516721 4.2634311 0.25262865
1.1864028 4.1313076 0.21278878
1.1921172 4.1508641 0.15606868
0.90497661 4.1241317 0.23703532
0.92955142 4.198339 0.24742499
1.1758976 4.8762288 0.21005431
0.94163597 4.8538609 0.20588903
1.1137577 4.8781519 0.16962545
0.069069907 4.9185128 0.11389171
1.2217844 4.9055476 0.18643917
0.031770825 5.0249648 0.10862583
1.2687036 4.9911876 0.2023261
1.1848928 4.9181676 0.16848244
1.5377042 4.9881458 0.22809269
1.4164855 5.0304141 0.22814566
1.4663042 4.9546847 0.20580027
0.032632187 4.790266 0.44221824
0.833067 4.7312937 0.22300868
-0.076591574 4.7569318 0.46732515
0.077014521 4.8063407 0.36906156
0.099951215 4.8681431 0.21328543
1.1627053 4.8459058 0.18695685
0.95214909 4.8007846 0.19585741
1.0271786 4.5892267 0.40485197
-0.033587981 5.2713766 0.26290694
0.12059009 4.6917458 0.20517294
1.0280844 4.6072855 0.42412594
-0.018407034 4.6910448 0.40223294
1.0006673 4.6113086 0.38196078
1.0382087 4.7720976 0.43670902
0.99817729 4.6201639 0.37489587
-1.4477126e-06 4.8402433 0.4586513
0.063994944 4.7483082 0.35554263
0.041706096 4.775321 0.35938871
0.038164441 4.6474528 0.21411248
0.14573249 4.4683676 0.194489
0.14212249 4.4669032 0.19794106
0.84182906 4.4614754 0.16199133
1.1280578 4.8869491 0.18261021
0.85579437 4.30092 0.16408911
0.84790939 4.3223715 0.1107007
