# .PCD v0.7 - Point Cloud Data file format
VERSION 0.7
FIELDS x y z
SIZE 4 4 4
TYPE F F F
COUNT 1 1 1
WIDTH 1527
HEIGHT 1
VIEWPOINT 0 0 0 1 0 0 0
POINTS 1527
DATA ascii
4.6565628 2.1299591 -0.064967386
4.6500974 2.1095674 0.42212769
4.6502628 2.1347754 -0.0646277
4.761013 2.3842776 0.10305142
4.6474271 2.1203568 0.38431147
4.6358843 2.1391735 0.22305496
4.6888585 2.5781882 -0.23134705
4.6766925 2.1287415 0.39613882
4.6835289 2.4593694 -0.0062759984
4.7206607 2.1048427 0.41791886
4.6400743 2.1353085 0.37002733
4.6069407 2.15277 0.36444923
4.7743974 2.0895214 0.24670726
4.6716499 2.5792525 0.34980083
4.7138271 2.3841498 0.079399966
4.7330899 2.4007144 0.018111477
4.6684227 2.1200743 0.32264036
4.7384853 2.1109188 0.21631268
4.6012144 2.4291787 0.32779387
4.5564876 2.1358981 0.24131353
4.6343899 2.5177975 0.19995399
4.5924597 2.4182632 -0.027412307
4.614665 2.143023 -0.06277293
4.5790176 2.1576343 -0.059190586
4.6018858 2.1496029 -0.061640751
4.6032944 2.1472061 -0.06167049
4.6616006 2.1088872 0.41984358
4.6469264 2.1063139 0.45236433
5.2287736 2.1210215 0.15223117
5.1288099 2.1157732 0.012531022
5.1622858 2.1086586 0.45927525
5.1863756 2.1065385 0.47200358
5.1186085 2.1401658 -0.084634341
5.2147384 2.158051 -0.038502973
4.1649408 2.3787341 -0.25890115
4.287251 2.5883045 -0.25084937
4.3415875 2.5927329 -0.25232193
4.3041844 3.0427678 -0.21514562
4.336401 2.162405 -0.21861601
4.5262055 2.1197522 0.37359542
4.5449939 2.4703879 0.35815156
4.5400271 2.4714804 0.35635409
4.3310137 2.5837862 -0.26430821
4.5918655 2.5409343 -0.044868905
4.6292386 2.549417 -0.23084609
4.6342621 2.1081495 0.44715199
4.6192412 2.4040561 0.2153331
4.5879869 2.1296649 0.27705032
4.622591 2.428586 0.33324799
4.6279593 2.1209815 0.40269697
4.6546459 2.1139355 0.22477417
4.6202512 2.1245997 0.39681685
4.6532302 2.5821953 0.30762023
4.658721 2.3996267 0.25723889
4.6430426 2.1172397 0.41268551
4.6568513 2.1146386 0.37291908
4.6643715 2.1176767 0.3213214
4.6225247 2.4098654 0.33611223
4.6940093 2.4192972 0.0087003503
4.6799335 2.4223881 0.039176118
4.6861219 2.587569 0.32251671
4.6790209 2.1176651 0.42792612
4.7143488 2.1107328 0.18735053
4.6618752 2.1167018 0.29896134
4.7276134 2.1019228 0.39503649
4.6609192 2.1456516 -0.060526334
4.6897874 2.4304266 0.0011306915
4.6405282 2.1353629 0.37113595
4.7591619 2.3597662 0.15217541
4.7007923 2.1306438 0.35492867
4.722559 2.2421844 0.49161902
4.703352 2.1179004 0.34190851
4.7270546 2.1084878 0.25019202
4.8304167 2.0944121 0.17482322
4.7529192 2.48893 0.1331234
4.7996407 2.5694492 0.51091796
4.3593998 2.5903118 -0.25993839
4.5455236 2.3921025 -0.039461821
4.5997958 2.5448511 -0.022122456
4.5471563 2.4177232 0.18479398
4.6806226 2.5341077 -0.0071234955
4.6290369 2.1470809 0.23035111
4.8077898 2.1932664 0.50097001
4.7361422 2.1341076 0.37271497
4.75561 2.4931436 0.12936902
4.8193264 2.5163758 0.069611982
4.7455068 2.1253228 0.41407841
4.7630143 2.4887552 0.086408965
4.7982535 2.1334915 0.14025106
4.720818 2.1376433 0.40541312
4.79178 2.1198273 0.40217394
4.7825403 2.1439886 0.19979255
4.7673879 2.1273994 0.41531855
4.9815145 2.338208 -0.010907192
4.7490625 2.6100607 0.20840627
4.8262153 2.144659 0.14173369
4.7019114 2.1733277 0.22586149
4.8941174 2.1261733 0.26438782
4.972188 2.2140803 -0.068447538
4.9741702 2.1554494 0.014985172
5.167172 2.1188898 0.44977063
5.058269 2.1303284 0.43186703
5.2108231 2.142199 -0.051729791
5.2375379 2.2307873 -0.024355317
4.2413783 2.5648983 -0.25260437
4.5705709 2.1272149 0.24112213
4.590589 2.1629939 -0.06200568
4.6698756 2.113688 0.42226854
4.7113519 2.109868 0.16949378
4.7076902 2.1174705 0.34415069
4.7302818 2.2364445 0.47703445
4.7221041 2.1226387 0.16884124
4.6989717 2.318248 0.21486962
4.6914625 2.1400402 0.33670941
4.5500488 2.4216921 0.17031424
4.6089516 2.5640786 0.28063539
4.5265217 2.1605809 -0.22632302
4.4702573 2.1888995 -0.22024494
4.822454 2.1416709 0.26085114
4.8045249 2.1657183 0.04351056
4.8548837 2.1545486 0.10986007
5.1448836 2.1221993 -0.031237448
4.4879045 2.5141556 0.14451176
4.5094929 2.4773495 -0.18186991
4.6768069 2.4233031 0.029266212
4.8276958 2.128022 0.20462394
4.8384914 2.132113 0.14512679
4.8213058 2.342262 0.025093656
4.8008013 2.5144992 0.073669337
4.8097496 2.5256743 0.087122492
4.8387241 2.1569457 0.01330523
4.8915606 2.1671851 0.024400597
4.9819794 2.1446087 0.024816893
5.1173611 2.3094711 -0.0018242408
5.1154017 3.5493629 0.030423233
5.1284332 3.553592 0.028581101
5.1537366 3.5654666 0.025775656
5.2213898 3.6028886 0.0071869218
5.2295899 3.6063685 0.0034687633
5.2377925 2.2061498 -0.032465003
4.7677183 2.0881813 -0.062036157
4.8000178 2.0844414 0.18038899
4.7754683 2.0993755 0.36205521
4.7478781 2.1091416 0.26288897
4.813221 2.0817425 0.39189324
4.76998 2.4874346 0.10726309
4.796 2.094516 0.21837667
4.8105006 2.0831866 0.39408115
4.786159 2.1004822 0.17180714
4.7643661 2.1146173 0.27107164
4.7412591 2.1180096 0.37304923
4.7384019 2.1268964 0.26807895
4.790216 2.1071639 0.19101667
4.7774353 2.1135724 0.2137987
4.8290792 2.0845389 0.40375212
4.7754059 2.1177733 0.17855428
4.8156648 2.0946562 0.21956721
4.76126 2.1222672 -0.00072580663
4.7592602 2.1238148 -0.00030056783
4.776196 2.1198506 0.19947711
4.7490411 2.1348507 0.21477082
4.8058696 2.1055863 0.21708597
4.7948585 2.1069031 0.21754763
4.7631817 2.1318038 0.12830628
4.8711886 2.0792155 0.22198047
4.79567 2.1147096 0.14729744
4.8016343 2.1191165 0.25555846
4.8019447 2.122191 0.15488872
4.8564568 2.0988932 0.19371046
4.8047729 2.1267059 0.14325683
4.8006902 2.1223843 0.20800781
4.8395767 2.1110914 0.19279614
4.8354468 2.1137373 0.18333548
4.8120556 2.1235318 0.18651797
4.8343997 2.1165307 0.20401487
4.8461418 2.1096997 0.19215128
4.824605 2.1158998 0.17970231
4.8595257 2.0983803 0.22077686
4.8814325 2.1020591 0.18158287
4.8291821 2.1234679 0.20688352
4.8474741 2.1187935 0.20763418
4.8586621 2.1157768 0.19761075
4.8541598 2.1154974 0.21189065
4.7806644 2.1496599 0.25926659
4.8350172 2.1181753 0.26858833
4.8399301 2.1260192 0.14285129
4.9152498 2.1035328 0.2788496
4.8739657 2.1188679 0.27589521
4.9409099 2.1474831 0.021937741
5.2097139 2.5743053 -0.13924952
5.1493244 2.1473322 -0.040088251
5.26513 2.2401721 -0.021997824
5.2576909 2.243691 -0.058025744
5.2585831 2.1878204 -0.033712227
4.653595 2.4131291 0.095413901
4.6689048 2.4130163 0.093394347
4.6691837 2.5571575 0.18434271
4.668066 2.4274709 0.046516586
4.6926351 2.4985557 0.12509996
4.7192225 2.4942231 0.13258956
4.7195868 2.4963517 0.13006976
4.7255054 2.4896743 0.31515256
4.7067256 2.5036714 0.12499729
4.7405972 2.6118212 0.21009991
4.7405424 2.3742495 0.27068412
4.7634492 2.3709426 0.2740775
4.7524338 2.3729067 0.27225053
4.7920256 2.3470137 0.14740835
4.8031197 2.3438811 0.15281573
4.8021188 2.5171902 0.10288098
4.8015432 2.5184424 0.064933345
4.5329857 2.4292767 0.17472105
4.6660466 2.3855088 0.22688134
4.6607227 2.386543 0.22546114
4.7593517 2.3895254 0.14108182
4.8072724 2.543088 0.084237725
5.0047641 2.1497717 -0.091224991
4.9628992 2.1660986 0.13170266
4.9560971 2.1658969 0.12396044
4.9840326 2.1546915 0.44002348
4.6944814 2.388777 0.26297408
4.4762487 2.4029031 0.24280784
4.6977668 2.3745756 0.23769283
4.6827087 2.459028 -0.008739925
4.5539012 2.4854493 0.34052363
4.5119972 2.453424 0.17012064
4.4908895 2.456537 0.15330568
4.5592418 2.4844034 0.34152061
4.5151258 2.4496214 0.15432061
4.5359268 2.3566885 -0.26627964
4.5993857 2.5880389 0.29622647
4.5883517 2.406219 0.19036216
4.6470757 2.6173115 -0.21784292
4.8080525 2.1414881 0.23900431
4.8005886 2.519444 0.10043005
4.8130393 2.357065 0.1738711
4.7968535 2.3587682 0.17354301
5.0266161 2.154171 0.4318406
4.7735748 2.1062028 0.2131281
4.6963224 2.146626 -0.064330257
4.783926 2.3564262 0.027138535
4.7645879 2.1305404 0.22206567
4.2246189 2.8018584 0.22782153
4.6754007 2.5989175 0.34408179
4.6547022 2.3839869 0.18163106
4.7430253 2.1295557 0.19734243
4.7061806 2.1511598 0.11750349
4.7225571 2.4820142 0.038888149
4.7165828 2.1523356 0.38408893
4.7359748 2.1416328 0.21802497
4.7732854 2.1341085 0.14890087
4.7652907 2.482682 0.32896888
4.7569151 2.1363955 0.20025916
4.7168541 2.3678472 0.2449538
4.7429037 2.160912 0.14112714
4.7479687 2.3842049 0.15813504
4.7536383 2.1642463 0.25779164
4.7855029 2.155344 0.25313878
4.8415117 2.3600929 0.10603521
4.7906222 2.3843288 0.030083835
4.8231602 2.3359659 0.16649978
4.7828903 2.3525155 0.12964886
4.8213363 2.3426092 0.13261174
4.861969 2.3251526 0.13473022
5.0404024 2.1466858 0.43021861
5.0599985 2.1388974 0.43804458
5.0337501 2.1516645 0.43388972
5.0386505 2.1593173 0.034298446
5.0652881 2.1495068 0.44338602
5.076509 2.1656232 -0.045299366
5.0950022 2.1731107 0.1707236
5.202765 3.5849509 0.0204264
5.2645216 2.233762 -0.028415481
4.5919833 2.4356983 0.32308635
4.6815572 2.3892453 0.26235965
4.7010307 2.1464067 0.35392857
4.691175 2.5754797 0.35443804
4.5191145 2.4283953 0.18300378
4.5610361 2.5160041 -0.033747435
4.5730395 2.5526311 -0.19298932
4.5825043 2.5523865 -0.198815
4.6045446 2.4205503 0.16196147
4.5993137 2.5251126 0.1932313
4.4965787 2.4332008 0.15761138
4.4749761 2.4538858 0.21560203
4.4760065 2.4612358 0.084980428
4.5220752 2.4355321 0.17719103
4.528409 2.4377465 0.1423053
4.511384 2.4424982 0.13890325
4.5154557 2.4343202 0.18324739
4.493721 2.4349701 0.1334734
4.5184503 2.4389484 0.14029825
4.7765608 2.7601316 -0.23473756
4.4748802 2.4516745 0.21448456
4.7024503 2.4692795 0.045809094
4.6870604 2.4766476 0.042775676
4.6836591 2.4723811 0.026252337
4.6938624 2.470644 0.01632422
4.685451 2.4216218 0.0088193938
4.6627331 2.4298882 0.038734093
4.238883 3.0177104 -0.20067394
4.6924095 2.1253781 -0.062529325
4.6773663 2.4324515 0.0036266588
4.7386813 2.1118448 0.1705745
4.7605815 2.1105092 0.35868227
4.752358 2.1196074 0.26612726
4.7491536 2.1247039 0.27128965
4.7510843 2.1110463 0.17328821
4.6442571 2.528959 0.25346884
4.7380109 2.1176865 0.16953352
4.6402454 2.1845667 0.014573092
4.7872591 2.1111596 0.19140337
4.9248424 2.1643085 0.01534789
4.7744102 2.1181126 0.19550705
4.7673984 2.1181178 0.0013840273
4.8008237 2.1080039 0.18444824
4.7899542 2.1227231 0.19662295
4.8112926 2.1129858 0.25798497
4.8452258 2.1190603 0.20749511
5.0459995 2.145961 -0.093129545
4.5724778 2.4133677 0.20590591
4.5302553 2.448282 -0.028869351
4.6181755 2.1085224 0.27414641
4.5618844 2.1490028 -0.22907326
4.599607 2.119283 0.2686446
4.6781235 2.4056544 0.0034765017
4.670845 2.1042461 0.23957056
4.6778226 2.0999174 0.22579339
4.7041383 2.4790728 0.027670288
4.7132015 2.4593546 0.17403731
4.7826223 2.5687325 0.39172578
4.7081099 2.4598856 0.17331231
4.6915073 2.2945092 0.22648349
4.7188883 2.4607661 0.16756347
4.7576542 2.1000905 0.35828114
4.6944685 2.119622 -0.067639261
4.7386594 2.107379 0.34840664
4.8045173 2.5605571 -0.022102861
4.7872033 2.5018446 0.06010969
4.7824664 2.4875736 0.089744925
4.8420081 2.1116118 0.21326889
4.8549004 2.1218534 0.24870557
4.6001625 2.1094372 0.24044149
4.6201143 2.5489776 0.15700974
4.8327317 2.7657433 -0.24810635
4.7769055 2.7561779 -0.24236891
4.6971211 2.4862621 0.28023297
4.6944356 2.4692714 0.045935508
4.69274 2.4846516 0.28018427
4.6337757 2.5917952 0.30732259
4.8480678 2.5070803 -0.014574757
5.0412798 2.1409888 -0.018784199
5.2658544 2.2219234 -0.024668787
4.5163169 2.4296026 0.17540732
4.5140581 2.4710259 -0.18372877
4.3895779 2.5789795 -0.25285131
4.5190625 2.4286857 0.18452138
4.4999714 2.4429247 0.17766497
4.4996729 2.4329197 0.15867101
4.4930801 2.4397423 0.15321957
4.5445709 2.3786564 -0.04427921
4.5125008 2.4375775 0.18101978
4.4990039 2.4367924 0.17089473
4.6013064 2.4063907 0.21412468
4.6112261 2.5354941 -0.016788334
4.5777683 2.4294016 0.16051425
4.6717649 2.4273188 0.040892996
4.6703472 2.4235275 0.020877989
4.6779065 2.4203367 0.040969618
4.6719084 2.4133027 0.031086922
4.6833887 2.4715979 0.16319929
4.6732626 2.4101379 0.031059375
4.5023189 2.4481468 0.13963707
4.6938667 2.5595543 0.18578559
4.9503589 2.1223729 0.021976056
5.0647564 2.1368933 -0.092108257
4.5519981 2.5687127 0.26410243
4.5271387 2.4238579 0.17722905
4.6028652 2.5659328 0.25833264
4.4926715 2.4323471 0.15598011
4.4863877 2.4497592 0.16504754
4.4835515 2.4576828 0.15396559
4.5013642 2.4322324 0.15829638
4.5038691 2.4393306 0.170725
4.7818093 2.1413119 0.20275979
4.8520341 2.119117 0.19199732
4.6471338 2.54566 0.16150014
4.6004505 2.5409355 -0.019101715
4.6479602 2.5804691 0.30561802
4.6398358 2.1521552 0.16889444
4.6935143 2.1342311 0.20879065
4.5390797 2.516788 -0.24245249
4.5658989 2.5661693 0.24955238
4.5557799 2.3809845 -0.03944188
4.5504341 2.3796222 -0.047864929
4.5540867 2.3770671 -0.047343098
4.5950079 2.5829587 0.29150304
4.6066437 2.5174146 0.19031738
4.6055994 2.5929837 0.2721985
4.6317811 2.5395696 -0.0090118125
4.6747179 2.1497324 0.33012906
4.7070384 2.1325316 0.20817117
4.4841671 2.4608774 0.16231
4.4837236 2.4582474 0.16376068
4.8008552 2.3452652 0.13098636
4.782702 2.3460331 0.12988642
4.8010616 2.3410048 0.15200615
4.823534 2.4916379 0.297463
4.821764 2.3385215 0.15477383
4.8030214 2.3447194 0.15099217
4.8074942 2.5695806 -0.019105585
4.8949437 2.1494825 -0.05263545
4.952466 2.1261382 0.025291419
4.9448357 2.14711 0.024108306
4.9877119 2.1425385 -0.096025392
5.2541685 2.2363513 -0.0090576122
4.6695499 2.4149704 0.031976573
4.6763535 2.4705117 -0.0048078937
4.6932964 2.484019 0.027846774
4.7109938 2.4837239 0.038104378
4.7082267 2.4946086 0.12876341
4.1985273 3.2354908 -0.21834338
4.2557478 2.1752076 -0.21805575
4.4628587 3.6416271 -0.21264336
3.4705653 3.25384 0.19493271
3.4738045 3.2571018 0.082365222
3.4622521 3.2556999 0.11577775
3.5422792 3.2299125 0.21288237
3.6366341 3.2376294 0.18950865
4.8444562 2.3906882 -0.0094434768
5.4326773 3.6966221 -0.019212322
5.0383348 3.7170217 -0.070249341
5.4473915 3.729738 -0.028782003
4.7272835 2.1506517 0.22079411
4.7154608 2.1343737 0.20558923
4.5171924 2.4367192 0.14478806
4.7158928 2.363369 0.24550533
4.7800074 2.1197693 0.22070898
4.7617998 2.1293328 0.24236016
4.7876525 2.1181726 0.20807782
4.754209 2.1442492 0.22711997
4.8136263 2.5153363 0.067605786
4.8014288 2.4964716 0.28873357
4.8100052 2.5712142 -0.020801228
4.8217931 2.4920659 0.29571891
4.8312893 2.153774 0.0072560073
4.8493943 2.1481047 0.075748824
4.8693533 2.1371782 0.046382852
4.8692999 2.1481185 0.088572711
4.9637141 2.1437225 0.13179001
4.9608889 2.1458833 0.13682301
5.001236 2.1522946 0.0983143
5.0093312 2.1532469 0.10974853
4.6480875 2.5622215 0.27056926
4.5516753 2.4077435 -0.046970107
4.6632872 2.5743539 0.41566244
4.6641226 2.1485016 -0.059793856
4.8307424 2.0472744 0.24384512
3.2155678 3.196995 -0.22497092
4.9710364 2.1433105 -0.073307604
5.0329275 2.151952 0.011560247
5.0387802 2.1506939 -0.03570636
5.2532568 2.1905029 -0.032914445
5.2556806 2.1928527 -0.03676514
5.2477202 2.2453916 -0.057623327
5.25596 2.2460692 -0.033536777
5.2583618 2.2458909 -0.017846875
4.8228889 2.3530693 -0.021577448
5.2613044 2.2322354 -0.018417431
3.768193 3.3042841 -0.22774006
3.4716604 3.2566965 0.12116957
3.5185497 3.2739496 0.19971061
3.4620624 3.2582979 0.11543586
3.5474756 3.2847598 0.047912654
5.2929983 3.5500476 0.82551098
4.8787231 3.4177279 0.68624312
4.8735628 3.4156513 0.67896879
5.1293874 3.6165833 -0.0275477
5.2825541 3.46733 0.63229865
3.4030952 2.412293 0.24881943
3.4326303 3.2347939 0.080705747
3.4759879 3.2557654 0.15951855
3.5610971 3.2884321 0.13056029
3.4935486 3.2455821 0.18758325
3.5072682 3.2569199 0.16921575
3.56335 3.286377 0.16736875
3.5391908 3.2824578 0.046414111
3.5293779 3.3548305 -0.15330154
3.4387121 2.4747798 0.20358273
3.9809768 3.466485 0.033134557
3.5030129 2.223753 -0.20420215
3.4001865 3.2915735 -0.12188008
4.6855383 2.0969248 0.23482932
4.5998049 2.603384 0.56842262
4.7333965 2.139873 0.67560744
4.5782795 2.1390479 0.39524278
4.5774674 2.4742367 0.20694315
4.6244445 2.5645542 0.26511276
4.1409683 3.5337267 -0.1914849
4.5700502 2.5696859 0.6149894
3.3803191 3.2670414 0.24062
3.3996282 3.2641692 0.21966989
3.402004 3.2575772 0.26846153
3.4165919 3.2585943 0.26531351
3.4650247 3.3048856 0.15734704
3.6290898 3.2329547 0.18971144
4.7103133 2.5147109 0.53628147
4.7181678 2.1414361 0.40097305
4.5620508 2.3909931 -0.02511338
4.6247315 2.1266534 0.27746278
4.7507329 2.5996971 -0.24370787
4.7054095 2.1525738 0.1398157
4.5496688 2.1430593 0.23113233
4.5397549 2.477329 -0.18629923
4.2949739 2.5863347 -0.25187546
4.2484608 2.8104434 0.2365621
4.8347106 2.1220334 0.1486982
4.8439946 2.7685859 -0.25382891
4.4854751 2.1839812 -0.25326663
4.5301962 2.7756255 -0.22300954
4.0713897 2.3527143 -0.24600643
5.1494961 2.24775 -0.047940537
4.5912676 2.2514181 0.45756188
5.0119309 2.1366796 0.50029469
5.165422 2.1165814 0.40112337
5.3041368 3.3710058 0.72673106
4.5178719 2.4485426 -0.044897668
2.9805954 2.3211181 -0.25917271
3.4320605 3.2551103 0.16264616
3.4431059 3.257972 0.16565458
4.9611964 3.6558185 -0.063326702
4.8998871 2.1359992 0.83370346
4.7710428 2.2382493 0.64001256
5.1898026 2.4368331 0.9510389
5.0407667 2.1577826 0.93128252
3.3720508 3.2669823 0.08744625
3.4112141 3.2722917 -0.21292774
3.5263424 2.0449679 -0.22963633
3.3757813 3.2382176 0.36576682
3.3711441 3.2407 0.32818842
3.273196 2.3217237 -0.24323866
3.4759791 3.2419627 0.091932237
3.5146813 3.2879894 0.046161994
3.5280819 3.3471622 -0.16277477
3.5398583 3.3589983 -0.15283614
3.5243723 3.3532093 -0.15157828
3.6496887 3.3723142 -0.16225038
3.5421929 3.3660042 -0.11474314
3.5411289 3.3684843 -0.12659881
3.1898692 3.1833298 -0.21438207
3.5637944 2.43466 0.25210994
3.4521055 2.0959086 -0.24869508
3.5117862 2.0508809 -0.25605556
3.6041186 2.1287773 -0.27043173
3.3572555 2.1371183 -0.2197918
3.5403843 2.1063294 -0.19021685
3.5675304 3.3748636 -0.12889653
3.5480022 2.1741419 -0.12621805
3.494133 2.4668355 0.26394564
3.5189047 2.4622989 0.28872451
3.6026204 3.2260549 0.20788014
3.6317987 3.2228875 0.19224371
4.0449963 3.3355401 0.29100552
3.6325302 3.2022319 0.23590457
3.680517 3.2198734 0.230665
3.6580431 3.2040431 0.25845855
3.6735075 3.2055156 0.25924882
3.1851904 3.1803942 -0.21646832
3.6612232 3.2306342 0.22695333
5.1186538 3.648627 0.42360106
3.6251187 3.2303829 0.18863198
3.7953832 3.252332 -0.22249061
3.7708473 3.2460108 -0.21504265
4.5621152 2.3789802 -0.049729466
4.6274276 3.2977879 -0.21756558
4.6697364 2.1093333 0.28648773
3.2015357 3.2009778 -0.21953259
4.6113281 2.5373731 -0.04739159
3.4899929 3.2474127 0.19486749
3.4905334 3.2485921 0.18986762
3.5976439 3.2796822 0.11912493
3.5500984 3.2332747 0.21257252
3.5306151 3.2291408 0.19510765
3.5585325 3.2357149 0.19984828
3.5735714 3.2424281 0.19999316
4.5751696 2.5594337 -0.25713891
4.5438743 2.5695887 0.62482446
3.7171662 3.1670737 0.29846525
3.752944 3.2983398 0.026005264
3.8126745 2.3739331 0.18758874
3.8335714 2.3912079 0.098756231
3.8097613 2.3830681 0.14796421
3.9279895 2.3834677 -0.25948137
5.0445223 3.6487129 -0.17414585
3.4727795 3.3048809 0.047487594
3.438077 3.2656236 0.26927525
3.4226067 2.3559444 0.28713778
3.40938 2.3587792 0.28359529
3.3753631 3.2602499 -0.20565577
3.486788 2.2077875 -0.21386844
3.5075793 3.2608497 0.12198403
3.4742448 3.2578716 0.082756236
4.645462 2.132231 0.24069341
4.5116982 2.397115 0.47349125
3.9677932 2.8282421 -0.23255475
4.6750884 2.571738 0.28181854
4.6815848 2.3722539 0.72252983
3.1416426 2.396179 -0.24565864
4.7847199 2.5968976 0.6337046
4.9253139 2.3476298 0.070880897
3.5437889 1.9906608 -0.037400622
3.6528151 1.949628 -0.19061053
3.6966186 1.9617599 -0.063416034
4.1815896 2.2612076 0.1635446
3.5114162 2.2026205 -0.11234561
3.6997221 3.4381831 -0.12554185
3.6637998 3.2367556 -0.1524225
3.7360363 3.288305 -0.0063050301
3.8001978 2.3706181 0.12831283
4.1246538 2.33603 -0.29393503
3.1557696 2.3649569 -0.25232548
3.3292809 3.2420745 -0.21743008
3.3255689 2.037298 0.21375877
3.4008145 2.0501945 -0.22161211
3.332931 2.0331254 0.21109931
3.4494305 2.2933683 0.29318172
3.4516418 2.0823226 -0.21045731
3.5199111 1.8992479 -0.083160482
3.5027947 1.9576986 -0.042629387
3.5791519 1.9112197 -0.048660479
4.4233851 2.6361604 0.70928824
3.8084903 1.9666476 -0.11356595
3.9465296 2.1827285 -0.21785015
4.1577029 1.9545795 0.41563645
3.0461714 2.2851734 -0.2433888
3.0265656 2.2986305 -0.24722849
3.0855765 2.255832 -0.25645807
3.0681593 2.4176393 -0.22909001
3.2593274 2.0462351 0.21004988
3.3657808 1.9823463 0.22320172
4.6488624 2.558989 0.29754123
3.3086627 3.234411 -0.25225165
4.6579137 2.5121431 0.09988755
4.7714195 2.5059335 0.067492574
4.9853396 3.2360771 0.5465765
5.0201263 2.1333745 0.55892313
5.0431929 2.4534917 0.90218526
5.097115 2.1496716 0.94044727
3.3307776 3.2729156 -0.218492
3.313288 3.2303245 -0.21186633
3.3441169 3.277112 -0.22066845
3.5659671 3.2240255 0.20488456
3.5354066 3.2063699 0.21471757
3.531559 3.1914377 0.23649129
3.4802203 2.1229401 -0.25541654
3.1747737 2.1777136 -0.24252231
4.955606 2.3693833 -0.000766752
3.2335513 3.3268783 -0.20509903
2.7137308 2.3873007 0.18903832
2.8155291 2.2787058 0.0077774115
2.834069 2.2866316 0.10612057
3.8591056 2.8263912 -0.26568049
3.5615044 2.2005107 0.083554931
4.5212898 3.2630043 0.22704299
3.4917393 2.0682824 -0.25067869
3.5215809 1.938943 -0.046137724
3.6496217 3.1458113 0.28323251
3.7382178 3.1548679 0.29122731
3.7075562 2.0323169 -0.14346653
3.7970402 1.9749727 -0.11245587
3.8223367 3.28617 0.01658831
3.3145285 2.1149375 -0.27052179
4.7635555 2.5342801 0.75038904
4.574862 2.1218286 0.87911242
6.5660424 1.8937156 1.0412639
4.4268861 2.1872773 0.47590452
5.0815735 3.6922336 -0.061036956
4.8233223 2.109122 0.61344379
4.9123483 3.3140938 0.042441204
4.5767493 3.5104315 -0.041257303
5.1077447 2.0868998 0.98041612
4.0822134 1.8942928 0.43543121
4.1663475 1.7770048 0.70387435
4.6040559 2.5926299 0.37478384
3.0283089 2.2779193 -0.24092218
2.9518983 2.3401978 -0.25657132
3.5439017 1.8822271 -0.083441041
3.8774288 2.834774 -0.24061388
4.6055303 2.4178607 0.35680199
4.5542941 2.4070699 0.64166272
3.3583071 2.0845928 0.22013979
3.4771767 2.2943351 0.29905403
3.1309295 2.0922842 -0.19064614
2.7616842 2.3081238 0.010402696
2.6878765 2.376698 -0.029927764
2.7173603 2.4007759 0.16440952
2.9334888 2.1919293 -0.036297433
2.7933006 2.2429845 0.12905927
2.8137271 2.2555308 -0.025593992
2.795764 2.2442052 0.12616931
2.7805836 2.2331831 -0.0098023564
2.9529731 2.1715481 -0.074345514
2.9844439 2.1551454 -0.077650785
2.5286002 2.2833147 -0.073434375
2.72892 2.1910901 -0.078698397
2.8428893 2.098444 -0.19940153
2.6236873 2.2090311 -0.2550869
2.8519578 2.0584173 0.18761043
2.8449759 2.3355525 0.050289482
2.565321 2.4004543 -0.013024852
2.4072909 2.2663908 -0.24574155
2.6206098 2.3187883 0.22210866
2.4516845 2.366219 -0.049783766
2.4802468 2.376168 0.21040718
2.4638875 2.3786585 0.15794483
2.6231747 2.3160598 0.26579756
2.7039428 2.2806988 0.27071047
2.5034976 2.39237 -0.025723418
2.6033344 2.1929865 -0.25882241
2.6849597 2.187449 -0.26457995
2.6864433 2.1247985 -0.18310976
2.5027497 2.4115999 0.010976346
2.983392 2.3565831 0.07436797
4.1004319 3.4392343 -0.16000055
4.1267085 3.4124813 -0.16053407
4.1956797 1.6617175 0.5492335
4.4327798 2.4397032 0.50329608
5.1125288 2.2065058 0.23328322
2.5098648 2.36099 0.20380266
2.8241856 2.2332029 0.082817324
2.5285435 2.3542824 -0.03229868
2.7978551 2.3693337 -0.25402981
2.9969563 2.2554829 -0.24631116
3.1472931 2.3810961 -0.26293406
2.580081 2.3867958 0.19271424
2.6839867 2.317338 0.25552076
2.6427934 2.3595264 0.23784655
2.6941619 2.1809866 -0.23768409
2.6590159 2.2080429 -0.25567394
3.5837538 2.2766321 0.099105291
4.3507614 3.4471476 -0.17662328
3.8667176 2.324528 0.25161058
4.0228791 2.3028948 0.33792251
4.1138244 2.2791934 -0.22259647
3.8702145 2.0308752 -0.10893959
3.6258113 2.1291571 -0.24341309
4.4156871 2.0936661 0.88068861
2.4387057 2.4512913 0.1606286
2.6469481 2.2020307 0.33268896
2.709883 2.3336129 0.11105286
2.6760364 3.4833636 0.032505054
2.5471804 2.2766535 -0.07202433
4.0189471 3.563499 -0.1789749
4.2067547 3.5437317 -0.06896878
3.1846349 2.0624194 -0.18776996
2.8855991 2.2878518 -0.15136021
3.0967619 2.388988 -0.25461048
3.311455 1.9221821 -0.22624719
4.0380354 2.3027577 0.3287859
2.3734803 2.4212084 0.16739681
2.3862832 2.4154432 0.16952276
2.3910272 2.4118934 0.19786862
2.4761631 2.3658876 0.24913813
2.9569836 2.2503808 -0.031974535
2.7220218 2.3776441 0.16549301
2.8656409 2.2757938 -0.038216479
2.6484902 2.31844 0.074658796
2.9355853 2.1848319 -0.16073065
3.3232265 1.9136214 -0.21538486
3.0908427 1.94683 -0.21941648
3.4352067 3.5543413 0.24319828
3.125576 2.09515 -0.18751962
2.9645886 2.1887159 -0.10594249
3.2748034 2.1096663 -0.29019862
3.1255441 2.1742957 -0.17999907
3.2438176 2.1264997 -0.1928841
3.5576644 3.4200861 -0.21035093
4.0111117 2.2948627 0.26946542
3.4629524 2.1376808 -0.18740614
2.8367341 3.465394 0.21382789
2.7118952 2.3506503 0.18106288
2.8019326 3.5665183 -0.22395204
2.6095488 2.1830447 -0.26426458
2.6076818 2.1863213 -0.26245764
2.8659117 2.0759144 -0.21607769
2.6073904 2.1898472 -0.25877783
2.4956591 2.3028309 -0.073357783
2.4226964 2.3839374 0.15538687
2.4057937 2.4095314 0.14590715
2.4559326 2.3674908 0.23229268
2.4915218 2.3522334 0.27191994
2.4158735 2.3989267 0.22664316
2.6596634 2.3035288 -0.028134884
2.5338192 2.575737 -0.24398141
2.8996284 2.2563715 0.18687719
2.6451759 2.2066178 -0.18718499
2.8059237 2.125994 -0.25533462
2.7984781 2.1301515 -0.25149232
2.8840425 2.0689282 -0.21831861
2.7794809 2.142524 -0.25313303
2.7910757 2.1222553 -0.21197359
3.0323286 2.2212365 -0.032155525
2.9202261 2.270293 -0.020370757
2.7863796 2.3703544 0.048480093
3.1072752 2.1519482 0.11893129
2.7842705 2.3022006 0.10386929
2.918546 2.2532222 -0.053986661
2.4586537 2.3388355 0.0047503239
1.922631 3.3705456 -0.21705058
2.0181193 2.4415839 -0.24841627
2.4016054 2.2370687 -0.24608722
2.4410901 2.267678 0.023095513
2.1259983 2.328341 -0.26798406
2.1646297 2.354367 -0.25153455
2.2302706 2.2671344 0.33532336
2.2396152 2.2366848 0.27000192
2.1745713 2.2812958 0.25893635
2.2713175 2.225719 0.21912849
2.1897869 2.2912951 0.3183918
2.5003445 3.5022533 0.082847096
2.4442403 2.3452449 0.024195194
2.4520333 2.3466613 0.025723912
2.4600422 2.2085264 0.2194854
2.5969732 3.6019013 0.50070858
2.3887146 2.2011199 0.045149121
2.43788 2.3642385 0.053355385
2.6970201 2.2593696 0.05986825
2.5414441 2.3270831 0.055250369
2.4825313 2.3802404 -0.030790392
3.752598 2.2399824 0.10627402
2.4966621 3.4965162 0.19766729
2.5150423 3.500654 0.119081
2.1428859 2.4304211 -0.25292379
2.3267486 2.2120774 0.14636008
2.5265522 3.424253 0.17351088
2.3420572 2.2748859 -0.23383732
2.4880569 2.3540809 0.23425896
2.446275 2.3840096 0.19355381
2.4417582 2.3876879 0.1929011
2.6239564 3.4626555 0.032691408
3.0976679 2.3027692 0.076276287
2.749655 2.1372862 -0.19750562
2.4568884 2.2393279 -0.25583005
2.4243414 2.3822165 0.10922384
2.6550219 3.4704621 0.093559086
2.3890429 2.403933 0.15085374
2.6068969 3.5437636 0.039367314
2.5208175 2.3738401 0.23619916
2.4677215 2.3475103 0.2695089
2.6311226 3.4206252 0.2279599
2.6664944 2.3484697 -0.026860977
2.497097 2.2405059 -0.19386731
2.6616781 3.4185412 0.14508142
2.8058333 3.6562467 0.017507335
2.6569495 2.8246362 -0.24507987
2.6650026 3.6872897 -0.13330494
2.4517391 2.3652618 0.088025503
2.3939383 2.2149119 0.015970225
2.5964694 2.3092594 -0.054264318
2.5335107 2.3726301 0.23555759
2.611027 2.2465281 -0.023330545
2.5619433 2.3814483 -0.059271231
2.5506029 2.387341 -0.060107887
3.0160062 3.5371914 -0.26144251
2.6012053 3.5247838 0.035143279
1.4434277 2.67893 -0.052777555
2.0423796 3.3551455 -0.2218838
2.0891585 2.4519713 -0.25649583
2.6117945 3.543251 0.19163929
2.6242514 3.5275054 0.21328707
2.424799 2.3329208 -0.021131363
2.4225652 2.3337674 -0.018885508
2.5471361 2.3537519 0.21073167
3.0662434 2.1813729 0.18529688
2.5379384 2.234117 -0.24432191
4.2321243 2.1569226 0.3477264
2.6427274 3.4505689 -0.22448562
2.7278287 3.2495813 -0.22370328
2.50001 2.2497287 -0.084175572
2.5719061 2.2146821 -0.084733479
2.5263276 2.2434976 -0.080593154
3.0792525 2.0034795 -0.11260197
2.9411366 2.0066328 -0.2490036
2.6035638 2.136138 0.16831495
3.0856574 2.1860106 -0.18647854
2.1892121 2.2907219 -0.18000267
2.5866024 3.5432751 0.087322176
2.400681 2.2526264 -0.2406778
2.4196341 2.1890945 0.19577584
2.3293576 2.2430086 0.1844434
2.4950128 3.5326083 0.54534513
2.40259 2.2140899 0.19371937
2.3927608 2.2104497 0.19241178
2.4834142 2.3698378 0.14931609
3.0346484 1.8630073 -0.17348756
4.1434665 2.243011 0.2856451
3.9889517 2.2432709 0.30080053
2.6971707 2.374512 0.11227845
2.7397156 3.3905981 0.18329309
2.5831542 2.2669587 -0.079732351
3.0051568 3.4351583 0.16690518
3.2573166 3.5531359 0.0077539766
2.7053454 2.0868518 0.17031659
3.0961654 1.8287505 -0.16787349
3.0817094 1.8333411 -0.16705574
3.0211461 1.984513 0.45724297
3.4766943 3.2959123 -0.22244835
4.3344145 3.4546773 -0.28705171
4.4436674 2.1830244 0.45531529
4.3030124 2.2197733 0.32449275
2.6053252 2.2169588 -0.25150248
2.7647316 2.1608262 -0.25535092
2.6088011 2.1943386 0.17134434
3.4843791 3.2855709 -0.23965888
3.3173618 1.7156466 -0.090875119
3.9344931 2.2804646 0.34431735
3.0438836 2.0248342 0.33872527
2.1384258 2.4192159 -0.26428834
2.0538936 2.4308238 -0.25427666
2.1407363 2.4294589 -0.25364554
3.6073923 1.6950055 0.4613094
2.238987 2.2620351 -0.1023693
2.5444827 3.5143697 0.086195014
2.5197654 3.5031452 0.10434698
2.3739004 3.4882557 0.11895134
2.51175 3.5373061 0.55202693
2.4722819 3.5278487 0.53776115
2.4828799 3.5289927 0.49634957
2.2716663 2.3337371 -0.26375589
2.2266281 2.3575959 -0.25250655
2.6179223 2.2786663 -0.051493023
2.6334443 3.3725784 0.26614925
3.6235392 3.5668464 0.2245609
2.973191 3.8187141 0.0034608592
2.9087353 3.7687447 0.0055526434
1.2741476 2.6889744 0.1330895
2.4983945 3.5091777 0.12605521
2.503432 3.5804694 0.56325918
2.5054176 3.5776134 0.5633775
2.5406072 3.5585003 0.45324159
2.5003235 2.3770115 0.12562439
3.0341947 2.1603925 0.15736604
2.6360002 3.5728106 0.26240626
2.921541 3.4008646 0.22254343
2.6462018 3.36289 0.1847323
2.6876194 3.380826 0.15168937
2.7245107 3.3671885 -0.17716275
2.7651966 3.3917987 -0.19331229
2.8255091 2.3682563 -0.25728032
2.721946 3.4775407 -0.18094696
1.9338002 3.3652327 -0.21792175
1.9787611 3.3653467 -0.2252188
2.5602384 3.5871596 0.4952513
2.5725174 3.5367968 0.21670271
2.5559874 3.564934 0.20539533
2.5089133 3.4203265 0.48575881
1.2140267 2.6755207 0.096414633
1.3007035 2.666157 0.054909069
1.2927543 2.6605487 0.1878771
1.2974643 2.6575172 0.18967313
1.2982196 2.6578333 0.18917228
1.3025231 2.6135681 0.051810522
1.3738996 2.6342959 0.044565555
1.3275791 2.6260042 0.0099557219
1.3413429 2.6674654 0.20887521
1.3481463 2.6608953 0.21487936
1.7360111 2.3710852 -0.22598121
1.2636145 2.6974413 0.13094737
2.02386 2.4506965 -0.24624525
2.476717 3.4967694 0.080746152
2.3508635 2.2517829 0.188995
2.9464357 2.3522332 -0.058770943
2.6176417 2.1716893 -0.17532648
5.3257055 3.3326528 -0.32057881
2.5801561 3.410342 0.19308595
2.719727 3.5807147 -0.20568053
2.6262705 2.2339249 -0.02341368
3.0761442 3.6929111 0.055872962
2.0127313 2.4240525 -0.24243347
1.2578259 2.6755114 0.14082287
2.5476074 3.5993989 0.53144598
2.5171192 3.4454014 0.17847514
2.5621986 2.3735468 0.18346949
2.4830909 3.4808514 0.2250139
2.4795818 3.526228 0.078021124
2.6410909 3.3848662 0.24394478
3.4068282 2.0512254 0.1495849
2.6842766 2.3215849 0.10954612
3.5392962 3.5558059 0.40140769
2.4897847 2.4026182 -0.019424668
2.6495984 3.3883641 0.24420649
2.6131616 3.5526352 -0.13601521
2.6832128 3.5764482 0.038900591
2.7244852 3.3670685 -0.1783676
2.701616 3.3806667 0.27106878
2.5557344 2.1739347 0.16559894
2.4899909 2.2653122 0.1843383
2.596909 2.1557066 0.1697209
2.5666912 2.1646895 0.16763827
2.6423318 2.4096022 -0.23903492
2.9094801 3.3290708 0.31556475
2.7961595 2.0727887 -0.19706446
2.9169011 2.3596947 0.073185652
2.5033345 2.3968828 0.18187904
2.7356493 2.3218715 -0.028871704
2.5169263 2.382833 0.17149508
2.4453278 3.5682437 0.51370412
2.5889118 3.52723 -0.13596913
2.5800166 2.3382137 0.16451095
2.6031899 3.4466059 -0.21733622
3.0322969 2.1416688 0.30133864
3.7440307 1.8582708 0.095574729
3.2413516 1.7816576 -0.19487195
1.3413668 2.6102927 -0.011892419
1.3189491 2.5382905 0.19544661
1.3763278 2.5879562 -0.020574654
1.3651732 2.5964088 -0.016546139
1.394282 2.5773261 -0.021790937
1.3842113 2.5245311 -0.17549132
1.3852718 2.5226762 -0.1750588
1.4025799 2.4709158 -0.17297609
1.3901023 2.4438798 -0.24835335
1.4063871 2.4712133 -0.24490598
1.7498513 2.273556 -0.25710315
1.8558143 2.3139842 -0.24669471
2.5955272 2.2471228 0.27552319
3.2019467 2.0046129 0.35405457
2.5649633 2.24208 0.18300666
2.6044004 2.235266 0.29086313
2.6977916 1.9692385 0.20615526
2.7188008 2.1181316 -0.1852791
1.2847911 2.6419809 0.22614758
1.2881134 2.6645403 0.18547951
1.2931719 2.6617661 0.18690893
1.2950209 2.6969774 0.19169073
1.3688366 2.5069659 -0.17621382
1.2711145 2.6487164 0.089059502
1.2650355 2.6404011 0.14820586
1.2681483 2.6395252 0.16790761
1.2608336 2.6429207 0.16654071
1.2665865 2.6354122 0.1359773
1.2631235 2.6387379 0.13555045
1.2694472 2.633904 0.1347869
1.2383493 2.6561809 0.12849854
1.2618951 2.6740267 0.13738015
1.2479068 2.676755 0.13789222
1.2512759 2.6977582 0.13794953
1.3212843 2.7026155 0.10968342
1.4503412 2.6279576 0.16469368
1.3142017 2.6721323 0.043248139
1.2826065 2.7009819 0.18939723
1.2595241 2.6779389 0.13696052
1.2635529 2.6691124 0.13919947
1.2592506 2.6256526 0.088195898
1.2710894 2.6563089 0.15859032
1.2746409 2.6516035 0.055230863
1.2989366 2.6605568 0.054245383
1.3016112 2.6628211 0.054255534
1.2997289 2.6638391 0.054228913
2.9650373 3.4861076 0.0081416089
3.5311038 1.6483427 -0.17480907
3.833849 3.3812797 -0.24726743
3.8072388 3.365911 0.24004333
1.2708704 2.7012298 0.12900275
1.2851336 2.7094927 0.12338397
1.2798491 2.7092364 0.12422785
1.2702926 2.7023854 0.1265125
1.2637167 2.7033422 0.12689532
2.4650681 2.1249273 -0.22267203
2.1657248 2.3251874 -0.24405268
1.2252963 2.6774571 0.12125035
1.272506 2.703099 0.13020356
1.3020979 2.6559434 0.18944564
1.3138177 2.6052413 -0.089076117
1.3187931 2.6019838 -0.087591819
1.3859049 2.5773957 -0.0081278896
1.2574465 2.6506932 0.14515871
1.2842977 2.6879685 0.14344615
1.2722583 2.6458032 0.092706092
1.3850979 2.4500349 -0.2466805
1.3699714 2.418931 -0.19758023
1.4001503 2.4617374 -0.17264408
1.3859013 2.4221861 -0.17354618
1.3708628 2.43016 -0.1653273
1.2240282 2.682328 0.11828149
1.2207544 2.682905 0.11914472
1.2085104 2.6818893 0.088132389
1.2367915 2.6002092 0.18741164
1.2509415 2.5984631 0.20349342
1.2653445 2.675482 0.15723723
1.23666 2.606303 0.1833632
1.2423323 2.5813947 -0.098080732
1.3591117 2.4325316 -0.20621642
1.5458131 2.3375921 -0.23759194
1.5935364 2.341213 -0.24260683
1.5627856 2.3098953 -0.23901565
1.8063385 2.2759874 -0.24632104
1.9922981 2.4720149 -0.23978287
1.979826 2.096302 -0.23697649
2.3944111 2.2707872 -0.22999139
2.4622707 2.0409405 -0.035425954
2.5108759 2.096472 -0.0082315449
1.2622845 2.6779959 0.15723313
1.2667034 2.6745658 0.15774669
1.2539009 2.651252 0.063874587
1.2650933 2.6440239 0.064086981
1.2511501 2.6550293 0.14231558
1.2595199 2.5996833 -0.11054768
1.2905997 2.6617603 0.18641023
1.3031887 2.6654594 0.053761549
1.4088384 2.4682167 -0.24602844
1.4166632 2.3947113 -0.22879784
1.5721251 2.3629835 -0.23636529
1.6228489 2.362144 -0.24587277
1.7678676 2.3545663 -0.23644525
1.7647223 2.3549547 -0.23400733
1.7940513 2.3378017 -0.23670611
1.8333852 2.3208997 -0.24657924
1.8251463 2.3556855 -0.23934898
2.5222714 2.1660757 0.15400217
2.5398266 2.0479934 -0.22525242
2.5059874 2.2330246 -0.23955905
2.4834964 2.0628765 -0.18998252
2.6227322 2.1999314 -0.23115703
2.5444369 1.9942703 -0.036704961
2.6438413 2.1789176 -0.21328117
2.8188579 1.9284867 -0.15394808
2.863534 2.0659785 -0.20064612
3.0381796 1.9710391 -0.22806913
2.7896266 2.0881164 -0.23458445
3.1983569 1.7798994 -0.19721144
3.8609412 1.8478343 0.25204247
3.1238279 1.8659804 -0.15257147
3.2275932 1.5204473 0.38299102
3.4801178 1.3809547 0.47200638
1.300298 2.2814081 -0.15975069
1.3059425 2.2747395 -0.15901768
1.1204239 2.066103 0.021862051
1.0419496 2.277678 0.18271567
1.1213213 2.0746803 0.02596754
1.1549282 2.0019326 0.035841793
1.1395657 2.0401499 0.03447574
1.3145411 2.2674627 -0.15218677
1.3405097 2.2253418 -0.23611066
1.1660891 2.0712008 -0.14575583
1.3302548 2.2526126 -0.22965539
1.2446721 1.9154072 -0.19903617
1.1807775 2.0588341 -0.14783767
1.1625239 2.1033685 -0.15596487
1.2028179 2.0227816 -0.15833305
1.2041172 2.0364637 -0.15627111
1.4846835 2.3496373 -0.23508762
1.4196628 2.3480275 -0.23606643
1.6411636 2.4033263 -0.20202824
1.6424234 2.3934014 -0.20274237
1.7435113 2.2830322 -0.25972956
1.9263321 2.1990128 -0.22341384
1.9664921 2.1733863 -0.22912784
1.9574491 2.2573249 -0.24792168
1.932974 2.204397 -0.21919017
3.7094991 1.7944391 -0.13989876
1.2696574 2.6515579 0.090229958
1.2368504 2.604111 0.19614653
1.2235342 2.6129866 0.19200227
1.1744251 2.5376649 0.21510828
1.1599817 2.5044971 0.18714012
1.1904567 2.4679358 0.1943282
1.1374413 2.5254872 0.168137
1.2759137 2.628602 0.22368248
1.1736574 2.5177236 0.18149163
1.2760754 2.6271513 0.22243816
1.9518317 2.1929109 -0.22107594
2.4797862 2.223084 0.21971591
2.5573928 2.1513691 -0.046173219
2.577158 2.2362714 0.1849167
2.4982281 2.1119947 -0.23185408
2.1773617 2.2801576 -0.17407559
2.549408 2.0580959 -0.011697336
2.5836959 2.0368392 -0.020199308
2.9349744 2.101496 0.33455807
2.6990194 1.963362 0.20268944
2.7038558 1.9625807 0.20625314
2.809166 1.9316561 -0.15303299
2.9443758 1.899572 -0.17016156
2.985471 1.9977227 -0.21196902
3.1116717 1.9988863 -0.20339119
3.3961561 2.0237389 0.17433091
1.1527786 2.5318074 0.18545537
1.1416359 2.5239878 0.17141825
1.1390382 2.5264306 0.17085539
1.1384082 2.524442 0.17547299
1.2337675 2.466687 -0.19416453
0.9650057 2.2550049 -0.23670428
1.071067 2.2920976 0.19075352
1.0651699 2.2908552 0.1864333
1.0652791 2.2919047 0.18584134
1.2243602 2.4062531 -0.17526752
1.0485772 2.2865603 0.18233052
1.0457659 2.2865279 0.18340488
0.85001099 2.145185 -0.23771238
1.2277353 2.3556437 -0.17954613
0.86031985 2.1395569 -0.23905984
1.0473106 2.2564449 0.18334453
1.2010629 2.5969324 0.17913713
1.1786309 2.5540061 0.20090641
1.4834658 1.9919164 -0.1408872
2.4285772 2.2599177 -0.23372974
2.4506426 2.2810478 -0.22812545
2.4144433 2.2707682 -0.22633477
2.1240084 2.1527424 0.013396879
2.3023558 2.0387228 0.19314438
2.2741964 2.077265 0.25611752
2.8439112 2.4724245 -0.23605615
2.3220477 2.0551603 0.27847329
2.387028 2.0446639 0.34272033
2.3557119 2.0523021 0.32340163
2.2651739 2.1034274 0.30601677
2.5278702 1.9215684 0.2988764
3.6846006 1.2535583 0.62473601
2.3970141 2.0110905 -0.0014573577
2.351084 2.0362031 0.35982737
2.2008171 2.1235638 0.31272939
2.3346963 2.0249109 0.042458359
2.4297001 1.9973274 -0.026405411
2.6061082 1.911069 -0.02715816
2.5781529 2.2518106 -0.22419016
2.3985772 2.0577974 0.00067606015
2.4997759 2.0854874 -0.22991467
2.8800929 2.3131008 -0.22325507
2.6974571 2.156507 -0.21940769
2.8871498 2.0114992 -0.22201154
3.6703885 2.0158694 -0.2430667
3.7206354 1.9802588 -0.2399445
3.3167915 2.139997 -0.20080838
3.1187289 1.7048361 -0.20316797
1.2290471 2.6408551 0.13963282
1.2370369 2.6075037 0.18520878
1.2346563 2.6102722 0.17828131
1.2727324 2.5367029 0.21912372
1.41968 2.6038246 0.047148161
1.4302052 2.5925965 0.047956962
1.4096658 2.5566452 -0.037820846
1.4142309 2.5529866 -0.029609827
1.4129065 2.5550461 -0.029527737
1.4136621 2.5555053 -0.028147107
1.4152323 2.5543745 -0.028589994
1.4155698 2.5558412 -0.014444007
1.3900418 2.4825532 -0.16989397
1.4173434 2.554415 -0.012206059
1.4114343 2.5613346 -0.0081251226
1.4126363 2.5637469 -0.020219112
1.4144601 2.5614259 -0.014761787
1.4147241 2.562187 -0.021465423
1.4127003 2.5639353 -0.023158008
1.4113588 2.5693843 0.0073551969
1.2092873 2.5845809 0.18512298
1.2918873 2.512722 -0.00078956498
1.2490431 2.5487361 -0.0010947811
1.1653159 2.5111322 0.23053189
1.1951888 2.480845 0.24274594
1.1901727 2.4817438 0.23576404
1.2391541 2.4707849 0.23896158
1.5815296 2.3028662 -0.23162004
1.6141135 2.2666595 -0.24611215
1.605188 2.3275511 -0.2379954
1.7258073 2.3932073 -0.21362637
2.0011563 2.159704 -0.22965018
2.0428946 2.1093695 -0.18919303
2.0539162 2.0992069 -0.18645476
2.5819485 2.1542344 0.19506752
2.5581634 2.1675172 0.19058082
2.75049 2.0569661 0.23422089
2.5707839 2.0959947 0.014776508
2.4589922 2.1903312 0.047444351
2.5805576 1.9881288 -0.20042707
2.6218529 1.8336791 0.19814216
2.5141969 2.0773361 -0.23035069
2.743356 2.4400856 -0.23227839
2.4885232 1.9285337 0.19565368
2.539587 2.1060669 -0.23392153
2.4444225 2.0298319 -0.029132141
2.4913883 1.9854547 -0.032793492
2.7600515 1.8486549 -0.040971987
2.7890701 2.1012886 0.19986621
2.5377722 2.0477688 -0.22376958
2.4792247 1.9739461 -0.0052673942
2.7562926 2.1167934 0.18491359
2.5066695 2.0202973 -0.02451806
2.7692316 2.1289606 -0.2270221
2.9493039 1.9949186 0.032736778
3.0959787 2.3507624 -0.22540134
3.1925099 2.3259511 -0.23503976
3.6360736 2.6251671 -0.22938493
3.8726115 2.8102844 -0.25140631
3.6404181 2.434793 -0.2399189
3.5940869 1.7589226 -0.27002499
4.0198374 2.6079791 -0.24559607
3.6070998 1.6971692 -0.19993944
3.4579711 1.3226848 0.46792778
3.6465092 1.2093356 0.49657866
3.6324887 1.216854 0.49015486
3.4962835 1.3021442 0.47562712
3.4721222 1.3196062 0.46420926
2.5858691 2.0812654 -0.23905967
2.421922 1.9992332 -0.025938055
2.3361025 2.0194826 0.19114172
2.9575963 1.7925032 -0.19690688
2.3175581 2.0417387 0.22722259
3.1281404 1.7860256 -0.17874734
3.1396537 1.8107771 -0.19388762
3.996124 2.3951097 -0.2672126
3.8701339 1.8398834 0.26911816
4.0435958 1.7850385 0.26315552
3.8172181 1.8866073 0.22667956
1.3671355 2.5109613 -0.17622244
1.3446274 2.5085254 -0.16588771
1.3445255 2.4926243 -0.1938909
1.4083312 2.5573189 0.011633859
1.4083904 2.5648882 -0.011067319
1.3928772 2.4880304 -0.2383246
1.3805727 2.4338503 -0.21136229
1.5985069 2.2873971 -0.23011018
1.7364109 2.2076025 -0.24423495
1.5853704 2.3828204 -0.23359911
1.1968597 2.4904618 0.18961708
1.1805006 2.4665294 0.18701296
1.2382576 2.5745075 -0.10481489
1.2245446 2.4921811 0.22210541
1.1534356 2.5685515 0.13422827
1.1668944 2.5464771 0.11052344
1.1709361 2.5518148 0.10651142
1.2408241 2.3643172 -0.19013898
1.2530875 2.5125623 -0.0218591
1.3326777 2.5071628 -0.18037675
1.3430631 2.4919257 -0.17953615
1.34357 2.479785 -0.18386459
1.4093584 2.570245 -0.016298428
1.2144037 2.5824208 0.18354224
1.2191503 2.5813699 0.074728608
1.2285688 2.592665 0.19219343
1.2020456 2.5902529 0.19362786
1.2374082 2.5735221 0.19692764
1.2308494 2.5785151 0.19401266
1.1831427 2.5304492 0.21650419
1.391261 2.4053931 -0.22296274
1.2992429 2.4913733 -0.18383026
1.2675527 2.4339352 -0.23477179
1.2907425 2.4522138 -0.17802145
1.2991816 2.3810241 -0.23060133
1.3056991 2.390625 -0.22880113
1.2893163 2.3000076 -0.15966469
1.2894535 2.3006401 -0.15958212
1.189443 2.5593615 0.19590314
1.1857553 2.5614915 0.19492149
1.1877652 2.5913308 0.10183881
1.2650871 2.4303801 -0.23554763
1.336262 2.492296 -0.22471906
1.3473668 2.4828203 -0.22990707
1.3525122 2.4748211 -0.23122464
1.2284255 2.0108919 -0.11549626
1.2314581 2.0550063 -0.079947762
1.2514925 2.0634861 -0.10763738
1.5422465 2.3363178 -0.23719132
1.2869925 2.0914674 -0.16877505
1.55111 2.3164024 -0.23540996
1.5930371 2.2956653 -0.23542462
1.7346487 2.3207133 -0.23124997
1.9609852 2.4788208 -0.23531997
1.5022442 1.8092222 -0.24137008
1.9583324 2.4502742 -0.22627904
3.6688757 1.6426958 0.32472178
3.6046808 1.6775485 -0.19312477
1.1734887 2.5498681 0.10487804
1.1955551 2.5563121 0.19579986
1.1844696 2.5280492 0.21825624
1.2452121 2.5096948 -0.030631032
1.2152385 2.4210408 0.20012373
0.98984396 2.1720171 -0.23835039
0.98557961 2.1499274 -0.23280819
1.2533448 2.431967 -0.23084879
0.92657155 2.0687072 -0.22600865
1.305037 2.3861384 -0.23140182
0.97225475 2.0860353 -0.23178421
0.92395908 2.1400387 -0.23283394
0.97776616 2.1634352 -0.22967327
0.92449254 1.9510481 0.10659636
0.95151299 1.9137845 0.10849113
1.0441152 2.1706491 -0.23489687
1.4088074 2.4009867 -0.22677404
0.9488585 1.9123362 0.162343
0.94378138 2.0438774 -0.018106027
1.2514869 2.2322862 -0.16116112
1.5773042 2.3512638 -0.2394717
1.5461619 2.3327062 -0.23855934
1.6154121 2.3552103 -0.24417695
1.570749 2.306119 -0.22695851
1.5899973 2.2902935 -0.23645119
1.6689582 2.3433154 -0.23615129
1.2159086 1.8428061 0.39690459
1.668433 2.324156 -0.23384382
1.7722685 2.3437147 -0.23711151
1.7388762 2.3580549 -0.22951448
1.7503754 2.3374789 -0.2316723
2.0753083 2.4481301 -0.24489339
2.160538 2.3808784 -0.22971341
2.2778115 2.2541234 -0.25871584
2.3613925 1.9915538 0.3669543
2.3786168 1.9980891 0.23255679
2.2892587 2.014905 0.35412797
2.4593513 1.9762924 0.29592904
2.4271486 1.975104 0.35587788
2.2483838 2.0164857 0.24591659
2.3781993 2.0466461 0.32516956
2.2927907 1.9394622 0.093614295
2.1212342 2.0402267 0.10022576
2.5079629 1.9605786 -0.031601794
2.7538974 1.871724 -0.22188552
2.5251043 1.9649283 -0.034152519
3.3186724 2.1141274 -0.20655812
3.5356231 1.6861948 -0.20733984
1.1746271 2.5396724 0.21407808
1.1852785 2.5495422 0.21730641
1.1511663 2.5235236 0.17173634
1.1640807 2.5109651 0.17833266
1.1503156 2.5226014 0.17165871
1.1580776 2.4869053 -0.037692424
1.1617121 2.4831522 -0.036858793
1.1554348 2.4873233 -0.034805458
1.1645206 2.4791005 -0.035681758
1.2425212 2.4745154 -0.19560079
1.2422371 2.4736969 -0.19570132
1.2423867 2.4739466 -0.19565289
0.97249198 2.2506783 -0.23859836
1.0650514 2.2883611 0.18992618
1.3030552 2.4500558 -0.029214263
0.86447948 2.1499698 -0.24115078
0.91598767 2.0578017 -0.22909997
1.0486377 2.313545 0.18056923
0.95437729 2.1764004 0.23294961
0.85789824 2.141181 -0.23939656
1.317749 2.2822258 -0.22621727
1.0656995 2.1896362 0.20189412
1.3321648 2.2795012 -0.2295887
1.109399 1.9619542 -0.034911476
1.117659 1.934585 -0.035353653
1.1020666 2.0137432 0.0220192
1.104774 2.0022674 0.071742326
1.1108041 1.9943782 0.075946748
1.0950706 2.0331471 0.023675915
1.0959333 2.0316558 0.024316221
1.0014799 2.2259665 0.12068295
1.025136 2.234761 0.064958073
1.1068193 2.0068779 0.023161896
1.4834418 2.3493488 -0.23449832
1.1137278 1.9932928 0.035533331
1.0817922 2.0872605 0.028765734
1.119427 1.9941005 0.038423404
1.0063119 2.2524002 0.11158484
1.0126563 2.2689352 0.028668588
1.0701534 1.967326 0.11195546
1.0692074 1.9671167 0.11145827
1.2132339 1.8354635 -0.093909808
1.175391 1.8932253 -0.052510917
1.1667837 1.9180249 -0.050502487
1.5464318 2.3533497 -0.23206632
1.0286961 2.2318802 0.095476165
1.3411249 1.4136616 0.16416311
1.552857 2.3463564 -0.23545334
1.0611604 1.9320028 0.22767079
1.3287168 1.4399582 0.16119228
1.2218834 1.8186083 -0.1709512
1.1882684 2.0060542 -0.17762123
1.036411 1.8127083 0.22051126
1.1972557 2.0064416 -0.1774524
1.2098712 1.9932398 -0.1509376
1.2097294 2.0011604 -0.17145571
1.2223326 1.970412 -0.10107328
1.075846 1.8394239 0.21741763
1.1185412 1.9187691 0.22587584
1.0858769 1.8464637 0.21564437
1.0903119 1.8331996 0.21654429
1.0922022 1.8308895 0.21629681
1.1254396 1.9030898 0.22239089
1.0907913 1.8490366 0.21324579
1.1247662 1.9302316 0.222289
1.1246717 1.9030619 0.22527471
1.6801505 2.3794804 -0.22685486
1.0809743 1.8578643 0.20060277
1.7479429 2.3089564 -0.23002002
1.7111783 2.2350996 -0.22971611
1.671152 2.2242007 -0.22691669
1.2910634 1.7572979 0.45446262
1.3084527 1.7290791 0.46627215
1.3030593 1.7039427 0.44325456
1.3044258 1.7292583 0.47061321
2.1715174 2.2998817 -0.23778857
1.9271121 2.2033601 -0.22628203
1.9287447 2.2088704 -0.22641872
1.4161084 1.5607164 0.431797
1.3147999 1.6100122 0.1337606
1.0461231 2.2325773 0.083984047
2.1787965 2.1028261 -0.21912947
2.2263298 1.996325 0.2758919
2.1729329 2.0109773 0.1590213
2.217124 1.9733789 0.16799723
2.257899 1.9843134 0.35662901
2.255826 2.0687535 0.21217206
2.116426 2.0401978 0.15825745
2.476373 2.0249052 -0.2203037
2.6491897 1.759086 -0.067970112
3.3494546 1.7635683 -0.20006266
3.5066154 1.6396117 -0.22567526
2.9697931 1.7388325 -0.0048327683
1.0021373 2.103255 0.22132631
0.96101433 1.9576062 0.10579603
1.3173604 2.2852874 -0.22849722
1.2584201 2.2128587 -0.15040822
1.1261022 2.0555978 -0.24782752
1.4134936 2.350106 -0.22306667
0.95887548 1.956064 0.16369902
1.3031186 2.2335975 -0.10052206
1.4190505 2.3398211 -0.22464234
1.426398 2.3316391 -0.22692533
1.4235007 2.3257124 -0.22895256
0.97968638 1.952402 0.10520247
1.5181996 2.3483627 -0.23066466
0.98694199 1.9529341 0.10491641
